-478.813 2500 -1794.135
-486.485 2500 -1732.558
-493.933 2500 -1670.953
-501.157 2500 -1609.321
-508.158 2500 -1547.663
-514.934 2500 -1485.981
-521.485 2500 -1424.274
-527.813 2500 -1362.543
-533.916 2500 -1300.79
-539.795 2500 -1239.016
-545.449 2500 -1177.22
-550.878 2500 -1115.404
-556.083 2500 -1053.569
-561.063 2500 -991.716
-565.818 2500 -929.844
-570.348 2500 -867.956
-574.622 2500 -806.05
-578.613 2500 -744.125
-582.324 2500 -682.182
-585.756 2500 -620.223
-588.909 2500 -558.25
-591.783 2500 -496.262
-594.377 2500 -434.263
-596.689 2500 -372.252
-598.642 2500 -310.229
-600.221 2500 -248.196
-601.428 2500 -186.154
-602.262 2500 -124.106
-602.722 2500 -62.054
-365.088 2000 -46.879
-326.652 2000 -93.13
-288.61 2000 -139.705
-250.963 2000 -186.601
-213.687 2000 -233.792
-176.715 2000 -281.221
-140.044 2000 -328.883
-103.676 2000 -376.778
-67.614 2000 -424.902
-31.854 2000 -473.252
3.677 2000 -521.771
38.992 2000 -570.447
74.09 2000 -619.279
108.97 2000 -668.267
143.633 2000 -717.41
178.068 2000 -766.712
212.36 2000 -816.114
246.522 2000 -865.606
280.552 2000 -915.188
314.451 2000 -964.861
348.22 2000 -1014.622
381.856 2000 -1064.473
415.361 2000 -1114.412
448.733 2000 -1164.439
481.983 2000 -1214.548
515.177 2000 -1264.695
548.327 2000 -1314.871
581.431 2000 -1365.076
614.49 2000 -1415.311
647.505 2000 -1465.576
680.475 2000 -1515.87
713.399 2000 -1566.193
746.279 2000 -1616.546
779.114 2000 -1666.928
811.903 2000 -1717.34
844.686 2000 -1767.756
877.496 2000 -1818.155
910.332 2000 -1868.536
943.194 2000 -1918.9
976.082 2000 -1969.248
1008.997 2000 -2019.578
1041.938 2000 -2069.89
1074.905 2000 -2120.186
1107.899 2000 -2170.464
1140.919 2000 -2220.725
1173.965 2000 -2270.969
1207.118 2000 -2321.142
1240.348 2000 -2371.265
1273.65 2000 -2421.34
1327.398 2000 -2440.372
1386.594 2000 -2450.967
1445.833 2000 -2461.322
1505.113 2000 -2471.439
1564.434 2000 -2481.317
1623.793 2000 -2490.956
1683.191 2000 -2500.355
1742.627 2000 -2509.516
1802.099 2000 -2518.436
1861.606 2000 -2527.117
1921.148 2000 -2535.558
1980.719 2000 -2543.788
2040.316 2000 -2551.831
2099.939 2000 -2559.685
2159.585 2000 -2567.351
2219.256 2000 -2574.829
2278.949 2000 -2582.119
2338.666 2000 -2589.22
2398.405 2000 -2596.133
2458.165 2000 -2602.857
2517.946 2000 -2609.393
2577.747 2000 -2615.74
2637.568 2000 -2621.899
2697.408 2000 -2627.874
2757.262 2000 -2633.699
2817.131 2000 -2639.379
2877.013 2000 -2644.913
2936.908 2000 -2650.301
2996.816 2000 -2655.544
3056.737 2000 -2660.64
3116.67 2000 -2665.591
3176.615 2000 -2670.396
3236.572 2000 -2675.055
3296.539 2000 -2679.569
3356.518 2000 -2683.936
3416.507 2000 -2688.158
3476.506 2000 -2692.233
3536.514 2000 -2696.163
3596.533 2000 -2699.946
3656.559 2000 -2703.602
3716.591 2000 -2707.152
3776.629 2000 -2710.597
3836.674 2000 -2713.937
3896.724 2000 -2717.172
3956.78 2000 -2720.301
4016.841 2000 -2723.325
4076.907 2000 -2726.243
4136.979 2000 -2729.057
4197.055 2000 -2731.765
4257.136 2000 -2734.367
4317.221 2000 -2736.865
4377.311 2000 -2739.257
4437.405 2000 -2741.543
4497.502 2000 -2743.724
4557.604 2000 -2745.8
4617.709 2000 -2747.771
4677.817 2000 -2749.646
4737.927 2000 -2751.447
4798.04 2000 -2753.174
4858.154 2000 -2754.827
4918.271 2000 -2756.405
4978.389 2000 -2757.909
5038.509 2000 -2759.339
5098.631 2000 -2760.694
5158.755 2000 -2761.975
5218.88 2000 -2763.181
5279.007 2000 -2764.313
5339.135 2000 -2765.371
5399.264 2000 -2766.354
5459.394 2000 -2767.263
5519.526 2000 -2768.098
5579.658 2000 -2768.858
5639.791 2000 -2769.543
5699.926 2000 -2770.155
5760.06 2000 -2770.692
5820.196 2000 -2771.163
5880.332 2000 -2771.581
5940.468 2000 -2771.945
6000.604 2000 -2772.254
6060.741 2000 -2772.507
6120.878 2000 -2772.706
6181.015 2000 -2772.85
6241.152 2000 -2772.939
6301.289 2000 -2772.973
6361.427 2000 -2772.951
6421.564 2000 -2772.875
6481.701 2000 -2772.744
6541.838 2000 -2772.558
6601.975 2000 -2772.317
6662.111 2000 -2772.021
6722.247 2000 -2771.67
6782.383 2000 -2771.264
6842.519 2000 -2770.803
6902.654 2000 -2770.287
6962.788 2000 -2769.717
7022.922 2000 -2769.091
7083.056 2000 -2768.41
7143.189 2000 -2767.674
7203.321 2000 -2766.883
7263.452 2000 -2766.038
7323.582 2000 -2765.137
7383.712 2000 -2764.181
7443.841 2000 -2763.171
7503.969 2000 -2762.105
7564.096 2000 -2760.985
7624.221 2000 -2759.809
7684.346 2000 -2758.579
7744.469 2000 -2757.293
7804.592 2000 -2755.953
7864.713 2000 -2754.557
7924.833 2000 -2753.107
7984.951 2000 -2751.602
8045.068 2000 -2750.042
8105.183 2000 -2748.413
8165.295 2000 -2746.676
8225.404 2000 -2744.827
8285.509 2000 -2742.866
8345.611 2000 -2740.794
8405.709 2000 -2738.611
8465.802 2000 -2736.317
8525.891 2000 -2733.911
8585.976 2000 -2731.393
8646.056 2000 -2728.765
8706.13 2000 -2726.025
8766.2 2000 -2723.174
8826.264 2000 -2720.208
8886.319 2000 -2717.071
8946.364 2000 -2713.741
9006.398 2000 -2710.22
9066.421 2000 -2706.506
9126.431 2000 -2702.601
9186.429 2000 -2698.504
9246.413 2000 -2694.216
9306.383 2000 -2689.736
9366.338 2000 -2685.064
9426.277 2000 -2680.181
9486.192 2000 -2675.016
9546.081 2000 -2669.562
9605.944 2000 -2663.82
9665.778 2000 -2657.79
9725.582 2000 -2651.471
9785.356 2000 -2644.865
9845.096 2000 -2637.971
9904.803 2000 -2630.789
9964.475 2000 -2623.32
10024.11 2000 -2615.564
10083.705 2000 -2607.508
10143.251 2000 -2599.097
10202.745 2000 -2590.325
10262.185 2000 -2581.195
10321.568 2000 -2571.704
10380.893 2000 -2561.855
10440.158 2000 -2551.646
10499.359 2000 -2541.08
10558.496 2000 -2530.155
10617.565 2000 -2518.873
10676.565 2000 -2507.234
10735.494 2000 -2495.237
10794.34 2000 -2482.843
10853.095 2000 -2470.023
10911.755 2000 -2456.779
10970.319 2000 -2443.111
11028.781 2000 -2429.019
11087.141 2000 -2414.505
11145.393 2000 -2399.569
11203.537 2000 -2384.211
11261.567 2000 -2368.434
11319.482 2000 -2352.237
11377.278 2000 -2335.622
11434.943 2000 -2318.555
11492.46 2000 -2300.998
11549.826 2000 -2282.955
11607.038 2000 -2264.427
11664.09 2000 -2245.414
11720.98 2000 -2225.919
11777.702 2000 -2205.942
11834.253 2000 -2185.485
11890.628 2000 -2164.55
11946.824 2000 -2143.138
12002.837 2000 -2121.251
12058.662 2000 -2098.89
12114.27 2000 -2075.995
12169.657 2000 -2052.568
12224.839 2000 -2028.665
12279.815 2000 -2004.289
12334.578 2000 -1979.442
12389.126 2000 -1954.124
12443.455 2000 -1928.339
12497.559 2000 -1902.087
12551.437 2000 -1875.372
12605.082 2000 -1848.194
12658.507 2000 -1820.584
12711.751 2000 -1792.628
12764.806 2000 -1764.316
12817.671 2000 -1735.65
12870.344 2000 -1706.63
12922.821 2000 -1677.26
12975.1 2000 -1647.539
13026.764 2000 -1616.803
13076.791 2000 -1583.429
13126.892 2000 -1550.167
13177.067 2000 -1517.017
13227.317 2000 -1483.98
13277.64 2000 -1451.054
13328.037 2000 -1418.242
13378.507 2000 -1385.542
13429.05 2000 -1352.956
13479.665 2000 -1320.482
13530.329 2000 -1288.083
13581.015 2000 -1255.72
13631.751 2000 -1223.434
13682.537 2000 -1191.227
13733.372 2000 -1159.098
13784.257 2000 -1127.047
13835.19 2000 -1095.074
13886.173 2000 -1063.18
13937.204 2000 -1031.364
13988.285 2000 -999.626
14039.414 2000 -967.967
14090.592 2000 -936.387
14141.818 2000 -904.885
14193.093 2000 -873.462
14244.416 2000 -842.118
14295.793 2000 -810.863
14347.241 2000 -779.725
14398.754 2000 -748.694
14450.331 2000 -717.771
14501.973 2000 -686.955
14553.679 2000 -656.248
14605.45 2000 -625.648
14657.284 2000 -595.156
14709.181 2000 -564.773
14761.142 2000 -534.498
14813.166 2000 -504.332
14865.253 2000 -474.275
14917.402 2000 -444.326
14969.614 2000 -414.486
15021.888 2000 -384.755
15074.224 2000 -355.134
15126.621 2000 -325.622
15179.081 2000 -296.219
15231.613 2000 -266.947
15284.235 2000 -237.837
15336.946 2000 -208.888
15389.745 2000 -180.099
15442.631 2000 -151.472
15495.605 2000 -123.007
15548.665 2000 -94.703
15601.812 2000 -66.562
15655.044 2000 -38.583
1271.931 1500 -47.065
1301.988 1500 -93.487
1332.047 1500 -139.907
1362.109 1500 -186.326
1392.172 1500 -232.743
1422.238 1500 -279.159
1452.305 1500 -325.573
1482.375 1500 -371.987
1512.447 1500 -418.398
1542.521 1500 -464.809
1572.597 1500 -511.218
1602.703 1500 -557.608
1632.868 1500 -603.959
1663.092 1500 -650.272
1693.375 1500 -696.547
1723.716 1500 -742.783
1754.117 1500 -788.98
1784.576 1500 -835.139
1815.094 1500 -881.259
1845.67 1500 -927.34
1876.306 1500 -973.382
1906.999 1500 -1019.385
1937.752 1500 -1065.349
1968.589 1500 -1111.256
1999.547 1500 -1157.081
2030.626 1500 -1202.825
2061.826 1500 -1248.486
2093.146 1500 -1294.065
2124.586 1500 -1339.561
2156.146 1500 -1384.974
2187.826 1500 -1430.303
2219.626 1500 -1475.549
2251.545 1500 -1520.71
2283.583 1500 -1565.788
2315.743 1500 -1610.778
2348.072 1500 -1655.646
2380.585 1500 -1700.382
2413.28 1500 -1744.985
2446.158 1500 -1789.453
2479.217 1500 -1833.787
2512.458 1500 -1877.985
2545.878 1500 -1922.046
2579.479 1500 -1965.971
2613.26 1500 -2009.757
2647.219 1500 -2053.405
2681.366 1500 -2096.906
2715.761 1500 -2140.212
2750.408 1500 -2183.316
2785.305 1500 -2226.218
2820.452 1500 -2268.915
2855.848 1500 -2311.406
2891.491 1500 -2353.691
2927.379 1500 -2395.766
2963.513 1500 -2437.632
2999.89 1500 -2479.286
3036.556 1500 -2520.687
3073.533 1500 -2561.809
3110.799 1500 -2602.67
3161.209 1500 -2617.201
3216.282 1500 -2622.233
3271.366 1500 -2627.142
3326.461 1500 -2631.929
3381.567 1500 -2636.594
3436.683 1500 -2641.136
3491.808 1500 -2645.556
3546.944 1500 -2649.853
3602.089 1500 -2654.028
3657.243 1500 -2658.08
3712.405 1500 -2662.01
3767.577 1500 -2665.817
3822.757 1500 -2669.501
3877.944 1500 -2673.063
3933.14 1500 -2676.503
3988.343 1500 -2679.819
4043.553 1500 -2683.014
4098.769 1500 -2686.108
4153.99 1500 -2689.114
4209.216 1500 -2692.03
4264.446 1500 -2694.857
4319.681 1500 -2697.595
4374.92 1500 -2700.243
4430.164 1500 -2702.803
4485.411 1500 -2705.273
4540.662 1500 -2707.654
4595.918 1500 -2709.946
4651.176 1500 -2712.148
4706.438 1500 -2714.261
4761.704 1500 -2716.285
4816.973 1500 -2718.22
4872.245 1500 -2720.066
4927.519 1500 -2721.822
4982.797 1500 -2723.489
5038.077 1500 -2725.067
5093.36 1500 -2726.556
5148.645 1500 -2727.957
5203.931 1500 -2729.29
5259.219 1500 -2730.56
5314.509 1500 -2731.767
5369.799 1500 -2732.911
5425.091 1500 -2733.992
5480.385 1500 -2735.01
5535.679 1500 -2735.965
5590.975 1500 -2736.856
5646.271 1500 -2737.685
5701.568 1500 -2738.451
5756.867 1500 -2739.153
5812.165 1500 -2739.793
5867.465 1500 -2740.369
5922.765 1500 -2740.882
5978.066 1500 -2741.333
6033.367 1500 -2741.72
6088.669 1500 -2742.044
6143.971 1500 -2742.305
6199.273 1500 -2742.503
6254.576 1500 -2742.638
6309.878 1500 -2742.71
6365.181 1500 -2742.718
6420.484 1500 -2742.664
6475.786 1500 -2742.567
6531.089 1500 -2742.425
6586.391 1500 -2742.227
6641.693 1500 -2741.975
6696.995 1500 -2741.668
6752.296 1500 -2741.306
6807.597 1500 -2740.89
6862.898 1500 -2740.418
6918.198 1500 -2739.892
6973.498 1500 -2739.311
7028.797 1500 -2738.675
7084.095 1500 -2737.984
7139.393 1500 -2737.238
7194.689 1500 -2736.437
7249.986 1500 -2735.582
7305.281 1500 -2734.672
7360.575 1500 -2733.706
7415.868 1500 -2732.686
7471.16 1500 -2731.612
7526.451 1500 -2730.482
7581.741 1500 -2729.298
7637.03 1500 -2728.058
7692.318 1500 -2726.764
7747.604 1500 -2725.415
7802.889 1500 -2724.011
7858.172 1500 -2722.553
7913.454 1500 -2721.034
7968.733 1500 -2719.416
8024.009 1500 -2717.696
8079.281 1500 -2715.872
8134.55 1500 -2713.944
8189.816 1500 -2711.914
8245.077 1500 -2709.78
8300.334 1500 -2707.543
8355.587 1500 -2705.203
8410.836 1500 -2702.759
8466.08 1500 -2700.213
8521.319 1500 -2697.563
8576.553 1500 -2694.809
8631.781 1500 -2691.935
8687 1500 -2688.898
8742.21 1500 -2685.697
8797.41 1500 -2682.332
8852.6 1500 -2678.804
8907.779 1500 -2675.112
8962.948 1500 -2671.257
9018.104 1500 -2667.238
9073.248 1500 -2663.056
9128.38 1500 -2658.71
9183.498 1500 -2654.201
9238.6 1500 -2649.488
9293.679 1500 -2644.526
9348.736 1500 -2639.321
9403.77 1500 -2633.874
9458.779 1500 -2628.185
9513.763 1500 -2622.253
9568.72 1500 -2616.08
9623.649 1500 -2609.665
9678.549 1500 -2603.007
9733.419 1500 -2596.102
9788.251 1500 -2588.904
9843.043 1500 -2581.405
9897.793 1500 -2573.606
9952.499 1500 -2565.507
10007.16 1500 -2557.108
10061.775 1500 -2548.409
10116.34 1500 -2539.412
10170.856 1500 -2530.115
10225.32 1500 -2520.52
10279.73 1500 -2510.626
10334.085 1500 -2500.434
10388.384 1500 -2489.944
10442.624 1500 -2479.157
10496.795 1500 -2468.028
10550.893 1500 -2456.545
10604.914 1500 -2444.71
10658.857 1500 -2432.522
10712.719 1500 -2419.983
10766.498 1500 -2407.092
10820.192 1500 -2393.851
10873.799 1500 -2380.261
10927.315 1500 -2366.32
10980.74 1500 -2352.031
11034.07 1500 -2337.394
11087.29 1500 -2322.361
11139.785 1500 -2305.557
11186.749 1500 -2276.356
11233.752 1500 -2247.216
11280.792 1500 -2218.136
11327.87 1500 -2189.118
11374.985 1500 -2160.161
11422.138 1500 -2131.265
11469.328 1500 -2102.43
11516.556 1500 -2073.656
11563.821 1500 -2044.944
11611.129 1500 -2016.303
11658.528 1500 -1987.812
11706.027 1500 -1959.488
11753.625 1500 -1931.332
11801.322 1500 -1903.343
11849.117 1500 -1875.522
11897.01 1500 -1847.869
11944.999 1500 -1820.384
11993.085 1500 -1793.069
12041.267 1500 -1765.923
12089.544 1500 -1738.947
12137.95 1500 -1712.204
12186.485 1500 -1685.695
12235.115 1500 -1659.361
12283.84 1500 -1633.203
12332.66 1500 -1607.221
12381.572 1500 -1581.415
12430.577 1500 -1555.785
12479.675 1500 -1530.333
12528.863 1500 -1505.058
12578.143 1500 -1479.96
12627.513 1500 -1455.04
12676.969 1500 -1430.291
12726.486 1500 -1405.665
12776.06 1500 -1381.154
12825.691 1500 -1356.758
12875.378 1500 -1332.477
12925.121 1500 -1308.311
12974.92 1500 -1284.261
13024.775 1500 -1260.326
13074.685 1500 -1236.507
13124.651 1500 -1212.804
13174.671 1500 -1189.217
13224.746 1500 -1165.745
13274.874 1500 -1142.389
13325.043 1500 -1119.12
13375.249 1500 -1095.93
13425.491 1500 -1072.818
13475.768 1500 -1049.785
13526.081 1500 -1026.829
13576.43 1500 -1003.952
13626.815 1500 -981.153
13677.235 1500 -958.433
13727.69 1500 -935.792
13778.181 1500 -913.229
13828.706 1500 -890.744
13879.267 1500 -868.339
13929.862 1500 -846.012
13980.492 1500 -823.764
14031.157 1500 -801.595
14081.856 1500 -779.504
14132.59 1500 -757.493
14183.356 1500 -735.557
14234.143 1500 -713.671
14284.952 1500 -691.835
14335.783 1500 -670.05
14386.636 1500 -648.315
14437.51 1500 -626.631
14488.406 1500 -604.998
14539.323 1500 -583.415
14590.262 1500 -561.883
14641.222 1500 -540.401
14692.203 1500 -518.97
14743.206 1500 -497.59
14794.23 1500 -476.26
14845.275 1500 -454.981
14896.341 1500 -433.753
14947.428 1500 -412.576
14998.536 1500 -391.449
15049.664 1500 -370.371
15100.8 1500 -349.31
15151.938 1500 -328.258
15203.081 1500 -307.213
15254.226 1500 -286.178
15305.375 1500 -265.15
15356.528 1500 -244.131
15407.684 1500 -223.12
15458.843 1500 -202.117
15510.005 1500 -181.123
15561.172 1500 -160.137
15612.341 1500 -139.159
15663.511 1500 -118.181
15714.648 1500 -97.124
15765.759 1500 -76.007
15816.846 1500 -54.829
15867.908 1500 -33.59
15737.819 1000 -40.583
15664.738 1000 -67.432
15591.305 1000 -93.302
15517.533 1000 -118.188
15443.51 1000 -142.318
15369.311 1000 -165.901
15294.94 1000 -188.935
15220.4 1000 -211.419
15145.718 1000 -233.425
15070.968 1000 -255.199
14996.155 1000 -276.757
14921.281 1000 -298.101
14846.346 1000 -319.23
14771.35 1000 -340.144
14696.323 1000 -360.944
14621.288 1000 -381.715
14546.243 1000 -402.451
14471.189 1000 -423.154
14396.126 1000 -443.823
14321.054 1000 -464.458
14245.972 1000 -485.059
14170.88 1000 -505.627
14095.78 1000 -526.16
14020.67 1000 -546.66
13945.559 1000 -567.155
13870.472 1000 -587.738
13795.41 1000 -608.409
13720.371 1000 -629.168
13645.358 1000 -650.016
13570.369 1000 -670.953
13495.404 1000 -691.978
13420.465 1000 -713.092
13345.557 1000 -734.316
13270.709 1000 -755.752
13195.922 1000 -777.4
13121.197 1000 -799.261
13046.535 1000 -821.335
12971.936 1000 -843.62
12897.4 1000 -866.118
12822.929 1000 -888.827
12748.526 1000 -911.761
12674.217 1000 -934.994
12600.005 1000 -958.54
12525.894 1000 -982.397
12451.883 1000 -1006.566
12377.975 1000 -1031.045
12304.17 1000 -1055.835
12230.47 1000 -1080.935
12156.876 1000 -1106.344
12083.389 1000 -1132.062
12010.012 1000 -1158.089
11936.744 1000 -1184.424
11863.6 1000 -1211.1
11790.591 1000 -1238.146
11717.693 1000 -1265.486
11644.905 1000 -1293.12
11572.229 1000 -1321.047
11499.666 1000 -1349.266
11427.218 1000 -1377.778
11354.885 1000 -1406.582
11282.669 1000 -1435.678
11210.56 1000 -1465.038
11138.524 1000 -1494.575
11066.557 1000 -1524.281
10994.659 1000 -1554.155
10922.832 1000 -1584.198
10851.075 1000 -1614.408
10779.39 1000 -1644.787
10707.775 1000 -1675.333
10636.228 1000 -1706.037
10564.705 1000 -1736.797
10493.2 1000 -1767.597
10421.712 1000 -1798.439
10350.242 1000 -1829.321
10278.789 1000 -1860.244
10207.354 1000 -1891.208
10135.937 1000 -1922.212
10064.521 1000 -1953.221
9993.064 1000 -1984.134
9921.564 1000 -2014.946
9850.021 1000 -2045.659
9778.435 1000 -2076.272
9706.806 1000 -2106.784
9635.134 1000 -2137.195
9563.379 1000 -2167.41
9491.519 1000 -2197.374
9419.556 1000 -2227.089
9347.489 1000 -2256.552
9275.32 1000 -2285.765
9203.046 1000 -2314.716
9130.623 1000 -2343.292
9058.04 1000 -2371.458
8985.298 1000 -2399.214
8912.401 1000 -2426.557
8839.35 1000 -2453.488
8766.149 1000 -2480.006
8692.78 1000 -2506.058
8619.214 1000 -2531.548
8545.461 1000 -2556.492
8471.526 1000 -2580.889
8397.41 1000 -2604.733
8323.097 1000 -2627.955
8248.584 1000 -2650.526
8173.877 1000 -2672.446
8096.957 1000 -2681.071
8019.163 1000 -2684.19
7941.362 1000 -2687.132
7863.554 1000 -2689.896
7785.74 1000 -2692.482
7707.917 1000 -2694.776
7630.087 1000 -2696.834
7552.254 1000 -2698.763
7474.418 1000 -2700.565
7396.579 1000 -2702.238
7318.737 1000 -2703.783
7240.893 1000 -2705.2
7163.047 1000 -2706.489
7085.199 1000 -2707.649
7007.349 1000 -2708.682
6929.497 1000 -2709.586
6851.644 1000 -2710.363
6773.79 1000 -2711.011
6695.934 1000 -2711.531
6618.078 1000 -2711.922
6540.222 1000 -2712.186
6462.365 1000 -2712.322
6384.508 1000 -2712.329
6306.651 1000 -2712.208
6228.795 1000 -2711.959
6150.939 1000 -2711.582
6073.083 1000 -2711.076
5995.229 1000 -2710.443
5917.376 1000 -2709.681
5839.524 1000 -2708.791
5761.674 1000 -2707.773
5687.475 1000 -2684.95
5614.045 1000 -2659.075
5541.168 1000 -2631.68
5468.876 1000 -2602.778
5397.187 1000 -2572.41
5326.097 1000 -2540.665
5255.631 1000 -2507.559
5185.814 1000 -2473.104
5116.673 1000 -2437.314
5048.198 1000 -2400.263
4980.391 1000 -2362.004
4913.274 1000 -2322.546
4846.868 1000 -2281.904
4781.196 1000 -2240.086
4716.239 1000 -2197.166
4651.98 1000 -2153.207
4588.437 1000 -2108.221
4525.624 1000 -2062.219
4463.56 1000 -2015.212
4402.252 1000 -1967.223
4341.662 1000 -1918.332
4281.79 1000 -1868.562
4222.651 1000 -1817.925
4164.257 1000 -1766.43
4106.61 1000 -1714.1
4049.655 1000 -1661.018
3993.387 1000 -1607.207
3937.818 1000 -1552.676
3882.955 1000 -1497.434
3828.79 1000 -1441.507
3775.242 1000 -1384.989
3722.309 1000 -1327.895
3669.996 1000 -1270.233
3618.309 1000 -1212.008
3567.255 1000 -1153.227
3516.794 1000 -1093.937
3466.85 1000 -1034.21
3417.426 1000 -974.053
3368.525 1000 -913.47
3320.15 1000 -852.465
3269.354 1000 -795.095
3196.071 1000 -768.801
3122.702 1000 -742.75
3049.247 1000 -716.941
2975.707 1000 -691.377
2902.083 1000 -666.055
2828.375 1000 -640.978
2754.584 1000 -616.149
2680.742 1000 -591.47
2606.876 1000 -566.86
2532.988 1000 -542.319
2459.077 1000 -517.847
2385.177 1000 -493.345
2311.382 1000 -468.524
2237.7 1000 -443.371
2164.133 1000 -417.884
2090.682 1000 -392.064
2017.421 1000 -365.712
1944.406 1000 -338.686
1871.643 1000 -310.987
1799.138 1000 -282.618
1726.899 1000 -253.582
1654.93 1000 -223.881
1583.238 1000 -193.517
1212.216 500 -31.598
1278.948 500 -60.315
1345.894 500 -88.528
1413.05 500 -116.237
1480.414 500 -143.438
1547.98 500 -170.131
1615.793 500 -196.19
1683.906 500 -221.457
1752.308 500 -245.927
1820.992 500 -269.597
1889.947 500 -292.463
1959.165 500 -314.524
2028.687 500 -335.602
2098.48 500 -355.767
2168.524 500 -375.044
2238.806 500 -393.43
2309.317 500 -410.922
2380 500 -427.703
2450.795 500 -444.006
2521.698 500 -459.834
2592.678 500 -475.317
2663.664 500 -490.767
2734.656 500 -506.193
2805.653 500 -521.594
2876.655 500 -536.972
2947.662 500 -552.326
3018.674 500 -567.656
3089.692 500 -582.961
3160.715 500 -598.243
3231.743 500 -613.501
3302.776 500 -628.735
3373.813 500 -643.948
3444.836 500 -659.231
3515.838 500 -674.608
3586.82 500 -690.077
3657.782 500 -705.64
3728.723 500 -721.296
3799.644 500 -737.045
3870.522 500 -752.986
3941.346 500 -769.163
4012.127 500 -785.526
4082.866 500 -802.075
4153.56 500 -818.808
4224.211 500 -835.727
4294.817 500 -852.831
4365.378 500 -870.12
4435.917 500 -887.5
4506.438 500 -904.95
4576.938 500 -922.485
4647.417 500 -940.106
4717.875 500 -957.813
4788.31 500 -975.606
4858.724 500 -993.484
4929.117 500 -1011.448
4999.487 500 -1029.498
5069.835 500 -1047.633
5140.162 500 -1065.853
5210.466 500 -1084.159
5280.747 500 -1102.551
5350.977 500 -1121.141
5421.169 500 -1139.869
5491.328 500 -1158.725
5561.452 500 -1177.707
5631.543 500 -1196.816
5701.599 500 -1216.05
5771.659 500 -1235.269
5841.731 500 -1254.441
5909.623 500 -1280.191
5977.804 500 -1305.269
6046.51 500 -1328.872
6115.708 500 -1350.989
6185.367 500 -1371.61
6255.459 500 -1390.704
6325.964 500 -1408.214
6396.844 500 -1424.141
6468.062 500 -1438.476
6539.583 500 -1451.213
6611.372 500 -1462.344
6683.392 500 -1471.865
6755.608 500 -1479.771
6827.982 500 -1486.057
6900.479 500 -1490.721
6973.062 500 -1493.759
7045.694 500 -1495.222
7118.341 500 -1495.121
7190.969 500 -1493.457
7263.544 500 -1490.229
7336.033 500 -1485.44
7408.402 500 -1479.092
7480.622 500 -1471.226
7552.665 500 -1461.88
7624.501 500 -1451.057
7696.1 500 -1438.761
7767.519 500 -1425.468
7839.068 500 -1412.876
7910.558 500 -1399.957
7981.988 500 -1386.71
8053.357 500 -1373.136
8124.663 500 -1359.235
8195.904 500 -1345.007
8267.087 500 -1330.49
8338.22 500 -1315.727
8409.3 500 -1300.715
8480.328 500 -1285.456
8551.302 500 -1269.95
8622.222 500 -1254.197
8693.09 500 -1238.213
8763.921 500 -1222.068
8834.717 500 -1205.767
8905.477 500 -1189.312
8976.201 500 -1172.702
9046.888 500 -1155.937
9117.539 500 -1139.018
9188.166 500 -1122.002
9258.779 500 -1104.926
9329.377 500 -1087.789
9399.961 500 -1070.592
9470.53 500 -1053.335
9541.084 500 -1036.017
9611.623 500 -1018.639
9682.156 500 -1001.236
9752.702 500 -983.886
9823.261 500 -966.589
9893.833 500 -949.347
9964.419 500 -932.158
10035.018 500 -915.024
10105.629 500 -897.943
10176.254 500 -880.916
10246.895 500 -863.957
10317.571 500 -847.143
10388.283 500 -830.484
10459.032 500 -813.979
10529.817 500 -797.63
10600.637 500 -781.436
10671.493 500 -765.398
10742.383 500 -749.515
10813.309 500 -733.787
10884.269 500 -718.215
10955.281 500 -702.886
11026.338 500 -687.764
11097.439 500 -672.851
11168.583 500 -658.145
11239.77 500 -643.647
11310.999 500 -629.357
11382.27 500 -615.276
11453.581 500 -601.403
11524.933 500 -587.739
11596.324 500 -574.283
11667.754 500 -561.036
11739.223 500 -547.998
11810.73 500 -535.169
11882.273 500 -522.549
11953.854 500 -510.139
12025.47 500 -497.937
12097.122 500 -485.946
12168.808 500 -474.163
12240.529 500 -462.591
12312.283 500 -451.228
12384.07 500 -440.075
12455.889 500 -429.132
12527.739 500 -418.391
12599.614 500 -407.824
12671.515 500 -397.431
12743.441 500 -387.212
12815.392 500 -377.167
12887.366 500 -367.297
12959.365 500 -357.6
13031.386 500 -348.078
13103.431 500 -338.73
13175.497 500 -329.557
13247.586 500 -320.558
13319.696 500 -311.734
13391.825 500 -303.057
13463.958 500 -294.42
13536.095 500 -285.821
13608.237 500 -277.259
13680.384 500 -268.735
13752.534 500 -260.249
13824.69 500 -251.8
13896.845 500 -243.352
13968.986 500 -234.782
14041.113 500 -226.09
14113.224 500 -217.275
14185.32 500 -208.336
14257.401 500 -199.275
14329.467 500 -190.091
14401.508 500 -180.718
14473.495 500 -170.943
14545.425 500 -160.75
14617.294 500 -150.14
14689.1 500 -139.112
14760.841 500 -127.664
14832.49 500 -115.658
14904.04 500 -103.076
14975.487 500 -89.919
15046.825 500 -76.187
15118.051 500 -61.881
15189.159 500 -47.003
15260.145 500 -31.553
7752.22 0 -63.456
7700.698 0 -81.347
7637.719 0 -89.111
7574.74 0 -96.882
7511.763 0 -104.659
7448.786 0 -112.443
7385.81 0 -120.234
7322.831 0 -127.994
7259.832 0 -135.601
7196.815 0 -143.046
7133.778 0 -150.329
7070.723 0 -157.45
7007.65 0 -164.409
6944.559 0 -171.206
6881.451 0 -177.841
6818.326 0 -184.314
6755.177 0 -190.549
6692.009 0 -196.588
6628.827 0 -202.473
6565.63 0 -208.203
6502.42 0 -213.778
6439.196 0 -219.198
6375.959 0 -224.463
6312.709 0 -229.573
6249.447 0 -234.529
6186.173 0 -239.33
6122.887 0 -243.975
6059.59 0 -248.466
5996.283 0 -252.802
5932.965 0 -256.982
5869.637 0 -261.008
5806.299 0 -264.878
5742.952 0 -268.594
5679.595 0 -272.142
5616.226 0 -275.453
5552.844 0 -278.515
5489.45 0 -281.328
5426.046 0 -283.893
5362.633 0 -286.209
5299.211 0 -288.276
5235.781 0 -290.095
5172.344 0 -291.665
5108.902 0 -292.986
5045.456 0 -294.058
4982.005 0 -294.846
4918.551 0 -295.431
4855.097 0 -295.828
4791.641 0 -296.039
4728.185 0 -296.062
4664.73 0 -295.898
4601.275 0 -295.547
4537.821 0 -295.009
4474.369 0 -294.29
4410.919 0 -293.451
4347.47 0 -292.504
4284.023 0 -291.448
4220.578 0 -290.285
4157.135 0 -289.012
4093.694 0 -287.632
4030.255 0 -286.143
3966.819 0 -284.545
3903.386 0 -282.867
3839.953 0 -281.155
3776.522 0 -279.382
3713.092 0 -277.548
3649.665 0 -275.652
3586.239 0 -273.695
3522.815 0 -271.677
3459.393 0 -269.598
3395.974 0 -267.458
3332.556 0 -265.256
3269.14 0 -262.994
3205.727 0 -260.67
3142.316 0 -258.284
3078.907 0 -255.838
3015.501 0 -253.33
2952.097 0 -250.762
2888.696 0 -248.132
2825.297 0 -245.44
2761.901 0 -242.688
2698.507 0 -239.875
2635.116 0 -237
2571.728 0 -234.064
2508.353 0 -230.866
2445.007 0 -227.148
2381.692 0 -222.916
2318.414 0 -218.169
2255.194 0 -212.713
2192.05 0 -206.435
2128.992 0 -199.342
2066.033 0 -191.42
2003.199 0 -182.563
1940.505 0 -172.759
1877.967 0 -162.01
1815.598 0 -150.318
1753.413 0 -137.687
1691.425 0 -124.118
1629.65 0 -109.615
1568.1 0 -94.181
1308.81 0 -18.838
1358.058 0 -34.401
1407.475 0 -49.42
1457.054 0 -63.893
15107.323 3000 -62.642
15076.586 3000 -184.526
15053.484 3000 -243.058
15026.537 3000 -299.929
14996.276 3000 -355.112
14963.537 3000 -408.863
14928.582 3000 -461.203
14892.085 3000 -512.481
14854.164 3000 -562.715
14814.908 3000 -611.913
14774.69 3000 -660.329
14733.548 3000 -707.962
14691.496 3000 -754.794
14648.633 3000 -800.885
14605.109 3000 -846.353
14560.935 3000 -891.189
14516.118 3000 -935.383
14470.689 3000 -978.947
14424.766 3000 -1021.99
14378.37 3000 -1064.524
14331.508 3000 -1106.544
14284.186 3000 -1148.044
14236.484 3000 -1189.108
14188.41 3000 -1229.734
14139.931 3000 -1269.877
14091.052 3000 -1309.533
14041.78 3000 -1348.697
13992.118 3000 -1387.368
13942.072 3000 -1425.539
13891.591 3000 -1463.133
13840.668 3000 -1500.127
13789.33 3000 -1536.542
13737.583 3000 -1572.374
13685.433 3000 -1607.617
13632.888 3000 -1642.267
13579.954 3000 -1676.32
13526.637 3000 -1709.771
13472.945 3000 -1742.617
13418.884 3000 -1774.852
13364.462 3000 -1806.473
13309.685 3000 -1837.475
13254.524 3000 -1867.79
13198.995 3000 -1897.422
13143.128 3000 -1926.415
13086.932 3000 -1954.764
13030.413 3000 -1982.465
12973.58 3000 -2009.514
12916.44 3000 -2035.909
12859.001 3000 -2061.646
12801.269 3000 -2086.72
12743.282 3000 -2111.197
12685.068 3000 -2135.132
12626.633 3000 -2158.52
12567.981 3000 -2181.36
12509.119 3000 -2203.65
12450.05 3000 -2225.388
12390.78 3000 -2246.572
12331.314 3000 -2267.2
12271.668 3000 -2287.3
12211.867 3000 -2306.934
12151.912 3000 -2326.092
12091.806 3000 -2344.775
12031.554 3000 -2362.979
11971.16 3000 -2380.705
11910.627 3000 -2397.952
11849.959 3000 -2414.717
11789.16 3000 -2431.001
11728.234 3000 -2446.801
11667.192 3000 -2462.15
11606.049 3000 -2477.094
11544.81 3000 -2491.634
11483.476 3000 -2505.768
11422.049 3000 -2519.497
11360.533 3000 -2532.82
11298.931 3000 -2545.736
11237.244 3000 -2558.245
11175.476 3000 -2570.345
11113.63 3000 -2582.037
11051.707 3000 -2593.32
10989.712 3000 -2604.194
10927.652 3000 -2614.693
10865.533 3000 -2624.841
10803.358 3000 -2634.639
10741.129 3000 -2644.085
10678.848 3000 -2653.18
10616.516 3000 -2661.924
10554.136 3000 -2670.316
10491.71 3000 -2678.355
10429.239 3000 -2686.043
10366.726 3000 -2693.377
10304.172 3000 -2700.359
10241.583 3000 -2707.019
10178.967 3000 -2713.415
10116.325 3000 -2719.547
10053.657 3000 -2725.415
9990.965 3000 -2731.019
9928.25 3000 -2736.359
9865.512 3000 -2741.435
9802.755 3000 -2746.246
9739.977 3000 -2750.793
9677.181 3000 -2755.076
9614.367 3000 -2759.094
9551.541 3000 -2762.905
9488.704 3000 -2766.555
9425.859 3000 -2770.041
9363.005 3000 -2773.366
9300.142 3000 -2776.527
9237.272 3000 -2779.526
9174.394 3000 -2782.363
9111.508 3000 -2785.037
9048.616 3000 -2787.548
8985.719 3000 -2789.909
8922.818 3000 -2792.185
8859.914 3000 -2794.384
8797.008 3000 -2796.504
8734.099 3000 -2798.547
8671.187 3000 -2800.512
8608.274 3000 -2802.4
8545.358 3000 -2804.209
8482.439 3000 -2805.941
8419.519 3000 -2807.595
8356.597 3000 -2809.172
8293.672 3000 -2810.67
8230.746 3000 -2812.091
8167.819 3000 -2813.434
8104.889 3000 -2814.7
8041.958 3000 -2815.887
7979.027 3000 -2817.028
7916.094 3000 -2818.133
7853.161 3000 -2819.201
7790.228 3000 -2820.232
7727.293 3000 -2821.225
7664.359 3000 -2822.182
7601.423 3000 -2823.102
7538.487 3000 -2823.985
7475.551 3000 -2824.83
7412.614 3000 -2825.639
7349.677 3000 -2826.41
7286.739 3000 -2827.145
7223.801 3000 -2827.842
7160.862 3000 -2828.503
7097.923 3000 -2829.126
7034.984 3000 -2829.712
6972.044 3000 -2830.261
6909.104 3000 -2830.773
6846.164 3000 -2831.249
6783.223 3000 -2831.687
6720.282 3000 -2832.087
6657.341 3000 -2832.451
6594.4 3000 -2832.778
6531.459 3000 -2833.068
6468.517 3000 -2833.321
6405.575 3000 -2833.536
6342.634 3000 -2833.715
6279.692 3000 -2833.856
6216.75 3000 -2833.961
6153.808 3000 -2834.028
6090.865 3000 -2834.059
6027.923 3000 -2834.052
5964.981 3000 -2834.008
5902.039 3000 -2833.927
5839.097 3000 -2833.81
5776.155 3000 -2833.655
5713.214 3000 -2833.463
5650.272 3000 -2833.238
5587.33 3000 -2832.967
5524.389 3000 -2832.639
5461.448 3000 -2832.254
5398.508 3000 -2831.812
5335.568 3000 -2831.313
5272.628 3000 -2830.757
5209.689 3000 -2830.144
5146.75 3000 -2829.474
5083.813 3000 -2828.747
5020.875 3000 -2827.962
4957.939 3000 -2827.121
4895.003 3000 -2826.222
4832.068 3000 -2825.267
4769.135 3000 -2824.254
4706.202 3000 -2823.185
4643.27 3000 -2822.058
4580.339 3000 -2820.874
4517.409 3000 -2819.634
4454.48 3000 -2818.336
4391.553 3000 -2816.981
4328.627 3000 -2815.557
4265.703 3000 -2814.045
4202.781 3000 -2812.446
4139.861 3000 -2810.759
4076.944 3000 -2808.985
4014.03 3000 -2807.125
3951.118 3000 -2805.177
3888.209 3000 -2803.141
3825.302 3000 -2801.019
3762.399 3000 -2798.81
3699.499 3000 -2796.513
3636.602 3000 -2794.13
3573.708 3000 -2791.659
3510.818 3000 -2789.101
3447.932 3000 -2786.456
3385.049 3000 -2783.724
3322.171 3000 -2780.888
3259.299 3000 -2777.926
3196.432 3000 -2774.84
3133.572 3000 -2771.629
3070.719 3000 -2768.293
3007.872 3000 -2764.833
2945.032 3000 -2761.248
2882.199 3000 -2757.539
2819.374 3000 -2753.705
2756.556 3000 -2749.747
2693.747 3000 -2745.664
2630.946 3000 -2741.457
2568.153 3000 -2737.126
2505.369 3000 -2732.669
2442.593 3000 -2728.089
2379.828 3000 -2723.38
2317.075 3000 -2718.496
2254.336 3000 -2713.446
2191.611 3000 -2708.229
2128.899 3000 -2702.845
2066.203 3000 -2697.294
2003.521 3000 -2691.577
1940.854 3000 -2685.693
1878.204 3000 -2679.643
1815.569 3000 -2673.427
1752.952 3000 -2667.044
1690.353 3000 -2660.478
1627.777 3000 -2653.703
1565.223 3000 -2646.721
1502.693 3000 -2639.53
1440.188 3000 -2632.131
1377.707 3000 -2624.524
1315.252 3000 -2616.71
1252.823 3000 -2608.687
1190.422 3000 -2600.456
1128.048 3000 -2592.018
1065.704 3000 -2583.357
1003.398 3000 -2574.436
941.129 3000 -2565.255
878.899 3000 -2555.814
816.709 3000 -2546.113
754.56 3000 -2536.152
692.454 3000 -2525.931
630.39 3000 -2515.45
568.371 3000 -2504.711
506.399 3000 -2493.704
444.49 3000 -2482.349
382.648 3000 -2470.632
320.876 3000 -2458.555
259.175 3000 -2446.116
197.548 3000 -2433.317
135.997 3000 -2420.158
74.525 3000 -2406.636
13.15 3000 -2392.678
-48.119 3000 -2378.262
-109.278 3000 -2363.387
-170.324 3000 -2348.056
-231.254 3000 -2332.268
-292.064 3000 -2316.026
-352.746 3000 -2299.311
-413.279 3000 -2282.064
-464.023 3000 -2255.879
-473.677 3000 -2193.682
-483.074 3000 -2131.445
-492.213 3000 -2069.17
-501.093 3000 -2006.858
-509.715 3000 -1944.509
-518.079 3000 -1882.125
-526.184 3000 -1819.707
-534.03 3000 -1757.256
-541.618 3000 -1694.773
-548.987 3000 -1632.264
-556.173 3000 -1569.733
-563.128 3000 -1507.177
-569.852 3000 -1444.595
-576.344 3000 -1381.988
-582.605 3000 -1319.359
-588.634 3000 -1256.706
-594.431 3000 -1194.031
-599.997 3000 -1131.336
-605.331 3000 -1068.62
-610.433 3000 -1005.885
-615.303 3000 -943.132
-619.94 3000 -880.361
-624.328 3000 -817.572
-628.425 3000 -754.764
-632.235 3000 -691.937
-635.757 3000 -629.094
-638.992 3000 -566.235
-641.94 3000 -503.362
-644.6 3000 -440.476
-646.974 3000 -377.579
-648.984 3000 -314.669
-650.611 3000 -251.748
-651.854 3000 -188.818
-652.713 3000 -125.882
-653.188 3000 -62.942
15094.831 3000 -124.306
16502.253 5000 -69.072
16494.023 5000 -137.734
16481.419 5000 -205.734
16465.001 5000 -272.916
16445.122 5000 -339.159
16422.347 5000 -404.463
16396.78 5000 -468.727
16368.986 5000 -532.061
16339.128 5000 -594.449
16307.302 5000 -655.857
16273.891 5000 -716.418
16238.963 5000 -776.116
16202.63 5000 -834.971
16165.129 5000 -893.089
16126.484 5000 -950.452
16086.763 5000 -1007.076
16046.125 5000 -1063.046
16004.518 5000 -1118.298
15961.953 5000 -1172.816
15918.443 5000 -1226.584
15874.002 5000 -1279.585
15828.644 5000 -1331.802
15782.382 5000 -1383.22
15735.171 5000 -1433.768
15687.001 5000 -1483.403
15637.89 5000 -1532.108
15587.857 5000 -1579.865
15536.92 5000 -1626.656
15485.096 5000 -1672.463
15432.406 5000 -1717.271
15378.869 5000 -1761.063
15324.503 5000 -1803.823
15269.33 5000 -1845.535
15213.352 5000 -1886.161
15156.568 5000 -1925.652
15099.015 5000 -1964.015
15040.716 5000 -2001.233
14981.694 5000 -2037.293
14921.97 5000 -2072.18
14861.57 5000 -2105.882
14800.516 5000 -2138.384
14738.832 5000 -2169.675
14676.542 5000 -2199.741
14613.672 5000 -2228.573
14550.272 5000 -2256.222
14486.376 5000 -2282.705
14422.006 5000 -2308.013
14357.183 5000 -2332.137
14291.949 5000 -2355.128
14226.375 5000 -2377.13
14160.477 5000 -2398.142
14094.27 5000 -2418.159
14027.773 5000 -2437.19
13961.048 5000 -2455.409
13894.119 5000 -2472.863
13826.996 5000 -2489.552
13759.686 5000 -2505.472
13692.228 5000 -2520.756
13624.652 5000 -2535.509
13556.962 5000 -2549.725
13489.16 5000 -2563.402
13421.252 5000 -2576.541
13353.242 5000 -2589.14
13285.134 5000 -2601.198
13216.932 5000 -2612.715
13148.641 5000 -2623.69
13080.265 5000 -2634.123
13011.808 5000 -2644.012
12943.275 5000 -2653.357
12874.67 5000 -2662.158
12805.997 5000 -2670.413
12737.263 5000 -2678.148
12668.481 5000 -2685.435
12599.653 5000 -2692.278
12530.782 5000 -2698.676
12461.871 5000 -2704.63
12392.924 5000 -2710.139
12323.942 5000 -2715.203
12254.932 5000 -2719.868
12185.904 5000 -2724.258
12116.859 5000 -2728.375
12047.799 5000 -2732.221
11978.723 5000 -2735.795
11909.635 5000 -2739.096
11840.534 5000 -2742.125
11771.421 5000 -2744.885
11702.302 5000 -2747.458
11633.176 5000 -2749.874
11564.046 5000 -2752.133
11494.91 5000 -2754.236
11425.77 5000 -2756.182
11356.626 5000 -2757.972
11287.477 5000 -2759.605
11218.326 5000 -2761.081
11149.171 5000 -2762.401
11080.013 5000 -2763.564
11010.853 5000 -2764.583
10941.692 5000 -2765.514
10872.529 5000 -2766.364
10803.366 5000 -2767.133
10734.202 5000 -2767.821
10665.037 5000 -2768.428
10595.872 5000 -2768.954
10526.706 5000 -2769.4
10457.539 5000 -2769.764
10388.372 5000 -2770.047
10319.205 5000 -2770.25
10250.037 5000 -2770.371
10180.87 5000 -2770.411
10111.702 5000 -2770.4
10042.535 5000 -2770.369
9973.367 5000 -2770.318
9904.2 5000 -2770.245
9835.032 5000 -2770.153
9765.865 5000 -2770.039
9696.698 5000 -2769.905
9627.53 5000 -2769.75
9558.363 5000 -2769.575
9489.196 5000 -2769.379
9420.028 5000 -2769.162
9350.861 5000 -2768.924
9281.694 5000 -2768.666
9212.527 5000 -2768.412
9143.36 5000 -2768.193
9074.193 5000 -2768.007
9005.025 5000 -2767.853
8935.858 5000 -2767.731
8866.691 5000 -2767.642
8797.523 5000 -2767.585
8728.356 5000 -2767.561
8659.188 5000 -2767.569
8590.02 5000 -2767.61
8520.853 5000 -2767.683
8451.686 5000 -2767.788
8382.518 5000 -2767.926
8313.351 5000 -2768.097
8244.184 5000 -2768.3
8175.016 5000 -2768.535
8105.85 5000 -2768.826
8036.683 5000 -2769.194
7967.517 5000 -2769.629
7898.351 5000 -2770.131
7829.186 5000 -2770.702
7760.021 5000 -2771.339
7690.863 5000 -2772.421
7621.703 5000 -2773.44
7552.54 5000 -2774.247
7483.375 5000 -2774.841
7414.209 5000 -2775.229
7345.042 5000 -2775.607
7275.875 5000 -2775.967
7206.709 5000 -2776.31
7137.542 5000 -2776.637
7068.375 5000 -2776.946
6999.208 5000 -2777.238
6930.041 5000 -2777.514
6860.874 5000 -2777.773
6791.707 5000 -2778.014
6722.54 5000 -2778.239
6653.373 5000 -2778.447
6584.206 5000 -2778.637
6515.038 5000 -2778.811
6445.871 5000 -2778.968
6376.703 5000 -2779.108
6307.536 5000 -2779.231
6238.369 5000 -2779.376
6169.201 5000 -2779.538
6100.034 5000 -2779.684
6030.867 5000 -2779.815
5961.699 5000 -2779.931
5892.532 5000 -2780.031
5823.364 5000 -2780.116
5754.197 5000 -2780.186
5685.029 5000 -2780.241
5615.862 5000 -2780.28
5546.694 5000 -2780.304
5477.527 5000 -2780.313
5408.359 5000 -2780.306
5339.192 5000 -2780.285
5270.024 5000 -2780.248
5200.857 5000 -2780.195
5131.689 5000 -2780.128
5062.522 5000 -2780.045
4993.354 5000 -2779.947
4924.187 5000 -2779.834
4855.019 5000 -2779.705
4785.852 5000 -2779.561
4716.685 5000 -2779.402
4647.517 5000 -2779.227
4578.35 5000 -2779.038
4509.183 5000 -2778.833
4440.016 5000 -2778.616
4370.848 5000 -2778.37
4301.682 5000 -2778.088
4232.515 5000 -2777.77
4163.348 5000 -2777.414
4094.182 5000 -2777.022
4025.015 5000 -2776.593
3955.85 5000 -2776.128
3886.684 5000 -2775.626
3817.518 5000 -2775.087
3748.353 5000 -2774.511
3679.188 5000 -2773.899
3610.024 5000 -2773.25
3540.86 5000 -2772.565
3471.696 5000 -2771.842
3402.533 5000 -2771.084
3333.37 5000 -2770.288
3264.207 5000 -2769.456
3195.045 5000 -2768.587
3125.884 5000 -2767.672
3056.723 5000 -2766.686
2987.564 5000 -2765.634
2918.405 5000 -2764.514
2849.248 5000 -2763.328
2780.092 5000 -2762.073
2710.937 5000 -2760.752
2641.783 5000 -2759.363
2572.631 5000 -2757.907
2503.48 5000 -2756.384
2434.331 5000 -2754.794
2365.183 5000 -2753.136
2296.037 5000 -2751.411
2226.893 5000 -2749.619
2157.751 5000 -2747.76
2088.61 5000 -2745.833
2019.471 5000 -2743.831
1950.336 5000 -2741.724
1881.204 5000 -2739.511
1812.075 5000 -2737.19
1742.95 5000 -2734.761
1673.829 5000 -2732.226
1604.712 5000 -2729.584
1535.599 5000 -2726.834
1466.491 5000 -2723.977
1397.387 5000 -2721.013
1328.288 5000 -2717.942
1259.193 5000 -2714.764
1190.104 5000 -2711.479
1121.019 5000 -2708.087
1051.941 5000 -2704.583
982.87 5000 -2700.928
913.807 5000 -2697.119
844.753 5000 -2693.156
775.709 5000 -2689.038
706.673 5000 -2684.766
637.647 5000 -2680.34
568.632 5000 -2675.759
499.626 5000 -2671.023
430.632 5000 -2666.134
361.652 5000 -2661.041
292.693 5000 -2655.682
223.754 5000 -2650.061
154.837 5000 -2644.177
85.943 5000 -2638.031
17.073 5000 -2631.623
-51.772 5000 -2624.952
-120.591 5000 -2618.02
-189.375 5000 -2610.746
-258.118 5000 -2603.101
-326.82 5000 -2595.085
-395.477 5000 -2586.7
-431.734 5000 -2543.356
-444.716 5000 -2475.418
-457.186 5000 -2407.384
-469.146 5000 -2339.259
-480.593 5000 -2271.045
-491.641 5000 -2202.766
-502.392 5000 -2134.439
-512.839 5000 -2066.065
-522.982 5000 -1997.645
-532.821 5000 -1929.181
-542.355 5000 -1860.674
-551.585 5000 -1792.125
-560.509 5000 -1723.536
-569.129 5000 -1654.907
-577.51 5000 -1586.249
-585.652 5000 -1517.563
-593.513 5000 -1448.843
-601.093 5000 -1380.093
-608.391 5000 -1311.311
-615.407 5000 -1242.501
-622.142 5000 -1173.662
-628.595 5000 -1104.796
-634.767 5000 -1035.904
-640.656 5000 -966.988
-646.264 5000 -898.048
-651.589 5000 -829.086
-656.632 5000 -760.103
-661.349 5000 -691.096
-665.687 5000 -622.065
-669.649 5000 -553.011
-673.236 5000 -483.937
-676.446 5000 -414.844
-679.281 5000 -345.734
-681.739 5000 -276.611
-683.808 5000 -207.474
-685.36 5000 -138.324
-686.42 5000 -69.165
16075.879 4500 -67.855
16065.874 4500 -135.026
16050.398 4500 -201.166
16030.476 4500 -266.112
16007.371 4500 -329.997
15981.361 4500 -392.757
15953.197 4500 -454.583
15923.049 4500 -515.466
15891.139 4500 -575.446
15857.871 4500 -634.683
15823.271 4500 -693.153
15787.365 4500 -750.829
15750.386 4500 -807.824
15712.444 4500 -864.184
15673.552 4500 -919.891
15633.721 4500 -974.931
15592.961 4500 -1029.287
15551.284 4500 -1082.943
15508.704 4500 -1135.884
15465.231 4500 -1188.096
15420.878 4500 -1239.562
15375.658 4500 -1290.268
15329.581 4500 -1340.196
15282.581 4500 -1389.256
15234.669 4500 -1437.426
15185.863 4500 -1484.689
15136.179 4500 -1531.029
15085.635 4500 -1576.43
15034.248 4500 -1620.875
14982.013 4500 -1664.319
14928.902 4500 -1706.687
14874.944 4500 -1747.971
14820.16 4500 -1788.153
14764.573 4500 -1827.217
14708.207 4500 -1865.147
14651.083 4500 -1901.928
14593.227 4500 -1937.543
14534.669 4500 -1971.994
14475.479 4500 -2005.347
14415.68 4500 -2037.596
14355.292 4500 -2068.729
14294.344 4500 -2098.749
14232.92 4500 -2127.785
14171.053 4500 -2155.864
14108.758 4500 -2182.978
14046.048 4500 -2209.12
13982.956 4500 -2234.326
13919.379 4500 -2258.28
13855.449 4500 -2281.28
13791.248 4500 -2303.51
13726.785 4500 -2324.967
13662.067 4500 -2345.644
13597.136 4500 -2365.646
13532.046 4500 -2385.12
13466.8 4500 -2404.067
13401.403 4500 -2422.484
13335.858 4500 -2440.371
13270.171 4500 -2457.727
13204.347 4500 -2474.555
13138.403 4500 -2490.909
13072.339 4500 -2506.767
13006.157 4500 -2522.129
12939.862 4500 -2536.993
12873.457 4500 -2551.358
12806.946 4500 -2565.225
12740.332 4500 -2578.592
12673.62 4500 -2591.458
12606.814 4500 -2603.822
12539.916 4500 -2615.684
12472.931 4500 -2627.044
12405.863 4500 -2637.9
12338.715 4500 -2648.252
12271.498 4500 -2658.147
12204.223 4500 -2667.638
12136.892 4500 -2676.724
12069.508 4500 -2685.406
12002.072 4500 -2693.684
11934.589 4500 -2701.556
11867.059 4500 -2709.023
11799.486 4500 -2716.084
11731.878 4500 -2722.809
11664.242 4500 -2729.242
11596.579 4500 -2735.384
11528.89 4500 -2741.234
11461.176 4500 -2746.792
11393.439 4500 -2752.058
11325.68 4500 -2757.032
11257.9 4500 -2761.714
11190.101 4500 -2766.104
11122.284 4500 -2770.217
11054.455 4500 -2774.126
10986.616 4500 -2777.841
10918.766 4500 -2781.361
10850.906 4500 -2784.686
10783.036 4500 -2787.817
10715.159 4500 -2790.752
10647.272 4500 -2793.493
10579.379 4500 -2796.039
10511.478 4500 -2798.39
10443.571 4500 -2800.557
10375.661 4500 -2802.602
10307.747 4500 -2804.532
10239.83 4500 -2806.348
10171.91 4500 -2808.05
10103.987 4500 -2809.637
10036.061 4500 -2811.11
9968.134 4500 -2812.469
9900.204 4500 -2813.713
9832.272 4500 -2814.843
9764.338 4500 -2815.859
9696.403 4500 -2816.774
9628.467 4500 -2817.642
9560.53 4500 -2818.469
9492.594 4500 -2819.255
9424.656 4500 -2819.999
9356.719 4500 -2820.702
9288.78 4500 -2821.364
9220.842 4500 -2821.985
9152.903 4500 -2822.564
9084.964 4500 -2823.102
9017.024 4500 -2823.599
8949.084 4500 -2824.055
8881.144 4500 -2824.469
8813.204 4500 -2824.882
8745.264 4500 -2825.3
8677.324 4500 -2825.723
8609.384 4500 -2826.149
8541.444 4500 -2826.58
8473.504 4500 -2827.016
8405.564 4500 -2827.455
8337.624 4500 -2827.899
8269.684 4500 -2828.347
8201.744 4500 -2828.8
8133.804 4500 -2829.257
8065.864 4500 -2829.718
7997.925 4500 -2830.184
7929.985 4500 -2830.653
7862.045 4500 -2831.128
7794.105 4500 -2831.606
7726.166 4500 -2832.1
7658.227 4500 -2832.667
7590.287 4500 -2833.173
7522.347 4500 -2833.62
7454.407 4500 -2834.008
7386.467 4500 -2834.336
7318.526 4500 -2834.604
7250.585 4500 -2834.812
7182.644 4500 -2835.029
7114.703 4500 -2835.264
7046.762 4500 -2835.492
6978.821 4500 -2835.711
6910.879 4500 -2835.923
6842.938 4500 -2836.126
6774.997 4500 -2836.322
6707.056 4500 -2836.509
6639.115 4500 -2836.689
6571.174 4500 -2836.86
6503.233 4500 -2837.024
6435.291 4500 -2837.179
6367.35 4500 -2837.327
6299.409 4500 -2837.466
6231.468 4500 -2837.598
6163.526 4500 -2837.722
6095.585 4500 -2837.837
6027.644 4500 -2837.945
5959.703 4500 -2838.044
5891.761 4500 -2838.136
5823.82 4500 -2838.22
5755.879 4500 -2838.295
5687.937 4500 -2838.363
5619.996 4500 -2838.422
5552.054 4500 -2838.474
5484.113 4500 -2838.518
5416.172 4500 -2838.553
5348.23 4500 -2838.581
5280.289 4500 -2838.598
5212.348 4500 -2838.592
5144.406 4500 -2838.563
5076.465 4500 -2838.51
5008.523 4500 -2838.434
4940.582 4500 -2838.336
4872.641 4500 -2838.214
4804.7 4500 -2838.069
4736.758 4500 -2837.9
4668.817 4500 -2837.709
4600.876 4500 -2837.495
4532.935 4500 -2837.257
4464.994 4500 -2836.996
4397.054 4500 -2836.712
4329.113 4500 -2836.405
4261.172 4500 -2836.075
4193.232 4500 -2835.722
4125.292 4500 -2835.345
4057.351 4500 -2834.946
3989.411 4500 -2834.523
3921.471 4500 -2834.077
3853.532 4500 -2833.608
3785.592 4500 -2833.116
3717.653 4500 -2832.601
3649.713 4500 -2832.052
3581.775 4500 -2831.449
3513.836 4500 -2830.793
3445.899 4500 -2830.083
3377.962 4500 -2829.319
3310.025 4500 -2828.501
3242.089 4500 -2827.63
3174.154 4500 -2826.705
3106.22 4500 -2825.726
3038.287 4500 -2824.693
2970.354 4500 -2823.606
2902.422 4500 -2822.466
2834.491 4500 -2821.271
2766.561 4500 -2820.023
2698.632 4500 -2818.721
2630.704 4500 -2817.366
2562.778 4500 -2815.956
2494.852 4500 -2814.493
2426.928 4500 -2812.976
2359.004 4500 -2811.404
2291.083 4500 -2809.751
2223.164 4500 -2808.004
2155.248 4500 -2806.166
2087.334 4500 -2804.234
2019.423 4500 -2802.21
1951.514 4500 -2800.093
1883.609 4500 -2797.884
1815.706 4500 -2795.581
1747.807 4500 -2793.187
1679.911 4500 -2790.699
1612.019 4500 -2788.119
