-436.501 4062.5 -2440.504
-588.03 4062.5 -2309.975
-737.147 4062.5 -2176.697
-883.868 4062.5 -2040.786
-1028.208 4062.5 -1902.348
-1170.188 4062.5 -1761.49
-1309.827 4062.5 -1618.312
-1447.148 4062.5 -1472.909
-1582.175 4062.5 -1325.373
-1714.932 4062.5 -1175.791
-1845.444 4062.5 -1024.246
-1973.737 4062.5 -870.818
-2099.836 4062.5 -715.581
-2223.767 4062.5 -558.607
-2345.553 4062.5 -399.965
-2465.221 4062.5 -239.718
-2582.794 4062.5 -77.927
89059.618 2437.5 -83.559
88877.692 2437.5 -166.643
88695.547 2437.5 -249.247
88513.184 2437.5 -331.366
88330.6 2437.5 -412.995
88147.797 2437.5 -494.131
87964.773 2437.5 -574.767
87781.528 2437.5 -654.899
87598.062 2437.5 -734.523
87414.373 2437.5 -813.634
87230.462 2437.5 -892.227
87046.329 2437.5 -970.296
86861.972 2437.5 -1047.838
86677.393 2437.5 -1124.847
86492.59 2437.5 -1201.318
86307.563 2437.5 -1277.246
86122.313 2437.5 -1352.626
85936.838 2437.5 -1427.454
85751.14 2437.5 -1501.725
85565.217 2437.5 -1575.432
85379.071 2437.5 -1648.572
85192.7 2437.5 -1721.139
85006.105 2437.5 -1793.127
84819.287 2437.5 -1864.533
84632.244 2437.5 -1935.35
84444.978 2437.5 -2005.574
84257.489 2437.5 -2075.199
84069.776 2437.5 -2144.221
83881.841 2437.5 -2212.634
83693.687 2437.5 -2280.443
83505.321 2437.5 -2347.66
83316.748 2437.5 -2414.296
83127.976 2437.5 -2480.363
82939.009 2437.5 -2545.873
82749.854 2437.5 -2610.837
82560.516 2437.5 -2675.267
82371.002 2437.5 -2739.175
82181.316 2437.5 -2802.573
81991.464 2437.5 -2865.472
81801.452 2437.5 -2927.885
81611.285 2437.5 -2989.824
81420.968 2437.5 -3051.3
81230.506 2437.5 -3112.326
81039.904 2437.5 -3172.914
80849.167 2437.5 -3233.075
80658.3 2437.5 -3292.822
80467.307 2437.5 -3352.168
80276.194 2437.5 -3411.123
80084.965 2437.5 -3469.701
79893.624 2437.5 -3527.913
79702.176 2437.5 -3585.772
79510.625 2437.5 -3643.289
79318.976 2437.5 -3700.478
79127.232 2437.5 -3757.35
78935.399 2437.5 -3813.918
78743.48 2437.5 -3870.194
78551.478 2437.5 -3926.19
78359.4 2437.5 -3981.919
78167.246 2437.5 -4037.388
77975.017 2437.5 -4092.598
77782.713 2437.5 -4147.545
77590.334 2437.5 -4202.229
77397.88 2437.5 -4256.648
77205.35 2437.5 -4310.799
77012.745 2437.5 -4364.681
76820.065 2437.5 -4418.293
76627.308 2437.5 -4471.632
76434.477 2437.5 -4524.696
76241.569 2437.5 -4577.485
76048.585 2437.5 -4629.995
75855.526 2437.5 -4682.225
75662.39 2437.5 -4734.174
75469.179 2437.5 -4785.839
75275.891 2437.5 -4837.219
75082.527 2437.5 -4888.312
74889.087 2437.5 -4939.115
74695.571 2437.5 -4989.628
74501.979 2437.5 -5039.849
74308.311 2437.5 -5089.775
74114.567 2437.5 -5139.404
73920.746 2437.5 -5188.736
73726.85 2437.5 -5237.768
73532.877 2437.5 -5286.498
73338.828 2437.5 -5334.924
73144.704 2437.5 -5383.046
72950.503 2437.5 -5430.86
72756.227 2437.5 -5478.365
72561.875 2437.5 -5525.558
72367.446 2437.5 -5572.433
72172.939 2437.5 -5618.985
71978.353 2437.5 -5665.207
71783.689 2437.5 -5711.093
71588.944 2437.5 -5756.638
71394.117 2437.5 -5801.836
71199.21 2437.5 -5846.68
71004.22 2437.5 -5891.164
70809.147 2437.5 -5935.283
70613.99 2437.5 -5979.031
70418.749 2437.5 -6022.4
70223.423 2437.5 -6065.386
70028.012 2437.5 -6107.983
69832.515 2437.5 -6150.184
69636.932 2437.5 -6191.982
69441.261 2437.5 -6233.374
69245.504 2437.5 -6274.351
69049.66 2437.5 -6314.908
68853.727 2437.5 -6355.039
68657.707 2437.5 -6394.738
68461.599 2437.5 -6433.999
68265.402 2437.5 -6472.815
68069.116 2437.5 -6511.181
67872.742 2437.5 -6549.091
67676.279 2437.5 -6586.538
67479.727 2437.5 -6623.516
67283.086 2437.5 -6660.019
67086.357 2437.5 -6696.041
66889.537 2437.5 -6731.563
66692.623 2437.5 -6766.558
66495.61 2437.5 -6801
66298.498 2437.5 -6834.86
66101.281 2437.5 -6868.111
65903.959 2437.5 -6900.726
65706.527 2437.5 -6932.677
65508.985 2437.5 -6963.936
65311.331 2437.5 -6994.476
65113.562 2437.5 -7024.268
64915.679 2437.5 -7053.286
64717.679 2437.5 -7081.5
64519.563 2437.5 -7108.884
64321.33 2437.5 -7135.409
64122.98 2437.5 -7161.047
63924.514 2437.5 -7185.77
63725.933 2437.5 -7209.551
63527.238 2437.5 -7232.36
63328.432 2437.5 -7254.172
63129.517 2437.5 -7274.975
62930.498 2437.5 -7294.763
62731.381 2437.5 -7313.535
62532.171 2437.5 -7331.285
62332.871 2437.5 -7348.011
62133.489 2437.5 -7363.707
61934.027 2437.5 -7378.371
61734.492 2437.5 -7391.997
61534.889 2437.5 -7404.583
61335.223 2437.5 -7416.14
61135.503 2437.5 -7426.706
60935.734 2437.5 -7436.323
60735.924 2437.5 -7445.03
60536.078 2437.5 -7452.869
60336.201 2437.5 -7459.881
60136.298 2437.5 -7466.106
59936.373 2437.5 -7471.585
59736.43 2437.5 -7476.36
59536.473 2437.5 -7480.472
59336.503 2437.5 -7483.961
59136.524 2437.5 -7486.868
58936.538 2437.5 -7489.235
58736.547 2437.5 -7491.103
58536.552 2437.5 -7492.512
58336.555 2437.5 -7493.504
58136.556 2437.5 -7494.12
57936.556 2437.5 -7494.4
57736.556 2437.5 -7494.385
57536.556 2437.5 -7494.116
57336.557 2437.5 -7493.635
57136.558 2437.5 -7492.982
56936.559 2437.5 -7492.197
56736.561 2437.5 -7491.322
56536.563 2437.5 -7490.398
56336.565 2437.5 -7489.465
56136.567 2437.5 -7488.564
55936.569 2437.5 -7487.736
55736.57 2437.5 -7487.005
55536.571 2437.5 -7486.369
55336.572 2437.5 -7485.823
55136.573 2437.5 -7485.363
54936.573 2437.5 -7484.984
54736.573 2437.5 -7484.682
54536.573 2437.5 -7484.451
54336.574 2437.5 -7484.288
54136.574 2437.5 -7484.188
53936.574 2437.5 -7484.145
53736.574 2437.5 -7484.156
53536.574 2437.5 -7484.216
53336.574 2437.5 -7484.32
53136.574 2437.5 -7484.464
52936.574 2437.5 -7484.643
52736.574 2437.5 -7484.852
52536.574 2437.5 -7485.087
52336.574 2437.5 -7485.343
52136.574 2437.5 -7485.616
51936.575 2437.5 -7485.901
51736.575 2437.5 -7486.193
51536.575 2437.5 -7486.487
51336.575 2437.5 -7486.78
51136.575 2437.5 -7487.066
50936.576 2437.5 -7487.341
50736.576 2437.5 -7487.6
50536.576 2437.5 -7487.839
50336.576 2437.5 -7488.053
50136.576 2437.5 -7488.24
49936.576 2437.5 -7488.4
49736.576 2437.5 -7488.535
49536.576 2437.5 -7488.647
49336.576 2437.5 -7488.736
49136.576 2437.5 -7488.805
48936.576 2437.5 -7488.855
48736.576 2437.5 -7488.887
48536.576 2437.5 -7488.903
48336.576 2437.5 -7488.904
48136.576 2437.5 -7488.891
47936.576 2437.5 -7488.867
47736.576 2437.5 -7488.831
47536.576 2437.5 -7488.786
47336.576 2437.5 -7488.734
47136.576 2437.5 -7488.675
46936.576 2437.5 -7488.611
46736.576 2437.5 -7488.543
46536.576 2437.5 -7488.473
46336.576 2437.5 -7488.403
46136.576 2437.5 -7488.333
45936.576 2437.5 -7488.265
45736.576 2437.5 -7488.201
45536.576 2437.5 -7488.141
45336.576 2437.5 -7488.088
45136.576 2437.5 -7488.043
44936.576 2437.5 -7488.007
44736.576 2437.5 -7487.981
44536.576 2437.5 -7487.967
44336.576 2437.5 -7487.963
44136.576 2437.5 -7487.968
43936.576 2437.5 -7487.981
43736.576 2437.5 -7488.001
43536.576 2437.5 -7488.027
43336.576 2437.5 -7488.057
43136.576 2437.5 -7488.092
42936.576 2437.5 -7488.129
42736.576 2437.5 -7488.168
42536.576 2437.5 -7488.208
42336.576 2437.5 -7488.247
42136.576 2437.5 -7488.285
41936.576 2437.5 -7488.32
41736.576 2437.5 -7488.352
41536.576 2437.5 -7488.379
41336.576 2437.5 -7488.4
41136.576 2437.5 -7488.414
40936.576 2437.5 -7488.421
40736.576 2437.5 -7488.418
40536.576 2437.5 -7488.406
40336.576 2437.5 -7488.382
40136.576 2437.5 -7488.347
39936.576 2437.5 -7488.298
39736.576 2437.5 -7488.235
39536.576 2437.5 -7488.157
39336.576 2437.5 -7488.063
39136.577 2437.5 -7487.951
38936.577 2437.5 -7487.822
38736.577 2437.5 -7487.679
38536.577 2437.5 -7487.524
38336.577 2437.5 -7487.36
38136.577 2437.5 -7487.191
37936.577 2437.5 -7487.018
37736.577 2437.5 -7486.845
37536.577 2437.5 -7486.675
37336.577 2437.5 -7486.509
37136.577 2437.5 -7486.353
36936.577 2437.5 -7486.207
36736.577 2437.5 -7486.075
36536.577 2437.5 -7485.959
36336.577 2437.5 -7485.863
36136.577 2437.5 -7485.79
35936.577 2437.5 -7485.741
35736.577 2437.5 -7485.72
35536.577 2437.5 -7485.73
35336.577 2437.5 -7485.774
35136.577 2437.5 -7485.854
34936.577 2437.5 -7485.974
34736.577 2437.5 -7486.135
34536.578 2437.5 -7486.341
34336.578 2437.5 -7486.595
34136.578 2437.5 -7486.9
33936.578 2437.5 -7487.258
33736.579 2437.5 -7487.672
33536.579 2437.5 -7488.145
33336.58 2437.5 -7488.675
33136.581 2437.5 -7489.252
32936.582 2437.5 -7489.867
32736.583 2437.5 -7490.508
32536.584 2437.5 -7491.167
32336.585 2437.5 -7491.832
32136.586 2437.5 -7492.493
31936.587 2437.5 -7493.14
31736.588 2437.5 -7493.763
31536.589 2437.5 -7494.352
31336.59 2437.5 -7494.896
31136.59 2437.5 -7495.385
30936.591 2437.5 -7495.809
30736.591 2437.5 -7496.157
30536.591 2437.5 -7496.42
30336.591 2437.5 -7496.587
30136.591 2437.5 -7496.649
29936.591 2437.5 -7496.594
29736.591 2437.5 -7496.412
29536.592 2437.5 -7496.094
29336.592 2437.5 -7495.628
29136.593 2437.5 -7495.006
28936.595 2437.5 -7494.216
28736.597 2437.5 -7493.249
28536.6 2437.5 -7492.094
28336.605 2437.5 -7490.741
28136.611 2437.5 -7489.18
27936.619 2437.5 -7487.4
27736.629 2437.5 -7485.388
27536.642 2437.5 -7483.124
27336.658 2437.5 -7480.588
27136.678 2437.5 -7477.759
26936.703 2437.5 -7474.617
26736.733 2437.5 -7471.141
26536.77 2437.5 -7467.312
26336.814 2437.5 -7463.109
26136.867 2437.5 -7458.511
25936.93 2437.5 -7453.499
25737.004 2437.5 -7448.051
25537.091 2437.5 -7442.148
25337.193 2437.5 -7435.768
25137.311 2437.5 -7428.893
24937.448 2437.5 -7421.501
24737.605 2437.5 -7413.571
24537.785 2437.5 -7405.084
24337.991 2437.5 -7396.019
24138.225 2437.5 -7386.356
23938.489 2437.5 -7376.074
23738.788 2437.5 -7365.153
23539.123 2437.5 -7353.572
23339.5 2437.5 -7341.312
23139.92 2437.5 -7328.351
22940.389 2437.5 -7314.67
22740.91 2437.5 -7300.249
22541.487 2437.5 -7285.066
22342.125 2437.5 -7269.103
22142.828 2437.5 -7252.351
21943.598 2437.5 -7234.821
21744.436 2437.5 -7216.529
21545.345 2437.5 -7197.488
21346.325 2437.5 -7177.712
21147.378 2437.5 -7157.216
20948.505 2437.5 -7136.013
20749.708 2437.5 -7114.117
20550.986 2437.5 -7091.542
20352.341 2437.5 -7068.304
20153.773 2437.5 -7044.414
19955.282 2437.5 -7019.888
19756.87 2437.5 -6994.739
19558.535 2437.5 -6968.981
19360.279 2437.5 -6942.627
19162.101 2437.5 -6915.693
18964.001 2437.5 -6888.191
18765.979 2437.5 -6860.135
18568.034 2437.5 -6831.54
18370.165 2437.5 -6802.418
18172.373 2437.5 -6772.783
17974.656 2437.5 -6742.649
17777.014 2437.5 -6712.03
17579.446 2437.5 -6680.939
17381.95 2437.5 -6649.389
17184.526 2437.5 -6617.395
16987.172 2437.5 -6584.969
16789.887 2437.5 -6552.125
16592.671 2437.5 -6518.87
16395.528 2437.5 -6485.189
16198.461 2437.5 -6451.064
16001.474 2437.5 -6416.474
15804.574 2437.5 -6381.4
15607.764 2437.5 -6345.823
15411.048 2437.5 -6309.725
15214.433 2437.5 -6273.085
15017.924 2437.5 -6235.884
14821.524 2437.5 -6198.104
14625.241 2437.5 -6159.726
14429.08 2437.5 -6120.73
14233.046 2437.5 -6081.099
14037.146 2437.5 -6040.812
13841.385 2437.5 -5999.853
13645.77 2437.5 -5958.201
13450.308 2437.5 -5915.839
13255.005 2437.5 -5872.748
13059.869 2437.5 -5828.911
12864.906 2437.5 -5784.31
12670.123 2437.5 -5738.926
12475.529 2437.5 -5692.742
12281.13 2437.5 -5645.74
12086.935 2437.5 -5597.904
11892.952 2437.5 -5549.216
11699.19 2437.5 -5499.659
11505.655 2437.5 -5449.217
11312.358 2437.5 -5397.874
11119.308 2437.5 -5345.611
10926.516 2437.5 -5292.401
10734.002 2437.5 -5238.196
10541.784 2437.5 -5182.949
10349.883 2437.5 -5126.613
10158.319 2437.5 -5069.139
9967.115 2437.5 -5010.48
9776.293 2437.5 -4950.589
9585.879 2437.5 -4889.417
9395.895 2437.5 -4826.917
9206.371 2437.5 -4763.041
9017.331 2437.5 -4697.741
8828.807 2437.5 -4630.97
8640.828 2437.5 -4562.681
8453.425 2437.5 -4492.825
8266.631 2437.5 -4421.355
8080.481 2437.5 -4348.225
7895.011 2437.5 -4273.388
7710.258 2437.5 -4196.797
7526.262 2437.5 -4118.408
7343.062 2437.5 -4038.174
7160.7 2437.5 -3956.053
6979.221 2437.5 -3871.999
6798.67 2437.5 -3785.971
6619.093 2437.5 -3697.927
6440.54 2437.5 -3607.826
6263.059 2437.5 -3515.631
6086.702 2437.5 -3421.302
5911.523 2437.5 -3324.805
5737.575 2437.5 -3226.106
5564.914 2437.5 -3125.173
5393.583 2437.5 -3021.997
5223.595 2437.5 -2916.623
5054.961 2437.5 -2809.097
4887.686 2437.5 -2699.468
4721.777 2437.5 -2587.781
4557.24 2437.5 -2474.084
4394.08 2437.5 -2358.42
4232.299 2437.5 -2240.833
4071.902 2437.5 -2121.367
3912.889 2437.5 -2000.064
3755.263 2437.5 -1876.964
3599.025 2437.5 -1752.107
3444.175 2437.5 -1625.532
3290.713 2437.5 -1497.279
3138.639 2437.5 -1367.382
2987.952 2437.5 -1235.879
2838.652 2437.5 -1102.803
2690.736 2437.5 -968.19
2544.204 2437.5 -832.073
2399.054 2437.5 -694.482
2255.284 2437.5 -555.45
2112.893 2437.5 -415.006
1971.879 2437.5 -273.179
1832.24 2437.5 -129.999
66639.332 1625.21 -6465.126
66443.141 1625.253 -6503.973
66246.839 1625.282 -6542.256
66050.425 1625.299 -6579.958
65853.897 1625.305 -6617.061
65657.253 1625.301 -6653.546
65460.493 1625.289 -6689.397
65263.614 1625.27 -6724.595
65066.617 1625.245 -6759.122
64869.501 1625.216 -6792.96
64672.264 1625.183 -6826.092
64474.907 1625.15 -6858.498
64277.43 1625.115 -6890.162
64079.832 1625.082 -6921.065
63882.113 1625.051 -6951.188
63684.275 1625.024 -6980.514
63486.318 1625.002 -7009.024
63288.242 1624.986 -7036.701
63090.05 1624.975 -7063.527
62891.742 1624.969 -7089.487
62693.32 1624.968 -7114.564
62494.787 1624.97 -7138.741
62296.145 1624.975 -7162.001
62097.395 1624.981 -7184.329
61898.541 1624.989 -7205.707
61699.586 1624.996 -7226.119
61500.532 1625.004 -7245.549
61301.385 1625.01 -7264.001
61102.152 1625.015 -7281.501
60902.84 1625.02 -7298.074
60703.456 1625.024 -7313.748
60504.004 1625.028 -7328.548
60304.492 1625.03 -7342.501
60104.923 1625.032 -7355.633
59905.304 1625.033 -7367.971
59705.639 1625.034 -7379.541
59505.933 1625.035 -7390.371
59306.189 1625.034 -7400.486
59106.411 1625.034 -7409.913
58906.604 1625.033 -7418.679
58706.769 1625.032 -7426.811
58506.911 1625.03 -7434.334
58307.031 1625.028 -7441.277
58107.133 1625.026 -7447.664
57907.219 1625.024 -7453.523
57707.291 1625.021 -7458.881
57507.351 1625.019 -7463.763
57307.4 1625.016 -7468.197
57107.44 1625.013 -7472.208
56907.473 1625.011 -7475.825
56707.499 1625.008 -7479.072
56507.52 1625.006 -7481.976
56307.537 1625.003 -7484.564
56107.55 1625.001 -7486.863
55907.561 1624.999 -7488.898
55707.569 1624.997 -7490.688
55507.575 1624.996 -7492.246
55307.579 1624.995 -7493.582
55107.583 1624.994 -7494.708
54907.585 1624.993 -7495.635
54707.586 1624.992 -7496.373
54507.587 1624.991 -7496.935
54307.587 1624.991 -7497.331
54107.587 1624.991 -7497.573
53907.588 1624.991 -7497.671
53707.588 1624.991 -7497.637
53507.588 1624.991 -7497.483
53307.588 1624.991 -7497.218
53107.588 1624.992 -7496.856
52907.589 1624.992 -7496.406
52707.589 1624.992 -7495.88
52507.59 1624.993 -7495.29
52307.591 1624.994 -7494.646
52107.592 1624.994 -7493.96
51907.594 1624.995 -7493.243
51707.595 1624.996 -7492.506
51507.596 1624.996 -7491.76
51307.598 1624.997 -7491.018
51107.599 1624.998 -7490.289
50907.6 1624.998 -7489.585
50707.601 1624.999 -7488.918
50507.602 1625 -7488.298
50307.603 1625 -7487.737
50107.604 1625.001 -7487.239
49907.604 1625.001 -7486.803
49707.605 1625.001 -7486.424
49507.605 1625.002 -7486.101
49307.605 1625.002 -7485.831
49107.605 1625.002 -7485.612
48907.605 1625.002 -7485.44
48707.605 1625.002 -7485.313
48507.605 1625.002 -7485.228
48307.605 1625.002 -7485.183
48107.605 1625.002 -7485.174
47907.605 1625.002 -7485.2
47707.605 1625.002 -7485.257
47507.605 1625.002 -7485.344
47307.605 1625.002 -7485.456
47107.606 1625.002 -7485.592
46907.606 1625.002 -7485.749
46707.606 1625.002 -7485.924
46507.606 1625.002 -7486.114
46307.606 1625.001 -7486.317
46107.606 1625.001 -7486.531
45907.606 1625.001 -7486.752
45707.606 1625.001 -7486.977
45507.606 1625.001 -7487.205
45307.606 1625 -7487.432
45107.607 1625 -7487.656
44907.607 1625 -7487.874
44707.607 1625 -7488.084
44507.607 1625 -7488.283
44307.607 1625 -7488.472
44107.607 1625 -7488.649
43907.607 1625 -7488.814
43707.607 1624.999 -7488.967
43507.607 1624.999 -7489.107
43307.607 1624.999 -7489.234
43107.607 1624.999 -7489.347
42907.607 1624.999 -7489.445
42707.607 1624.999 -7489.528
42507.607 1624.999 -7489.596
42307.607 1624.999 -7489.647
42107.607 1624.999 -7489.682
41907.607 1624.999 -7489.7
41707.607 1624.999 -7489.7
41507.607 1624.999 -7489.682
41307.607 1625 -7489.646
41107.607 1625 -7489.59
40907.607 1625 -7489.514
40707.607 1625 -7489.418
40507.607 1625 -7489.302
40307.607 1625 -7489.163
40107.608 1625 -7489.003
39907.608 1625 -7488.821
39707.608 1625 -7488.616
39507.608 1625 -7488.387
39307.608 1625 -7488.134
39107.608 1625 -7487.857
38907.608 1625 -7487.558
38707.609 1625 -7487.24
38507.609 1625 -7486.91
38307.609 1625 -7486.571
38107.61 1625 -7486.229
37907.61 1625 -7485.888
37707.61 1625 -7485.554
37507.61 1625 -7485.23
37307.611 1625 -7484.922
37107.611 1625 -7484.635
36907.611 1625 -7484.372
36707.611 1625 -7484.14
36507.611 1625 -7483.943
36307.611 1625 -7483.785
36107.611 1625 -7483.672
35907.611 1625 -7483.608
35707.611 1625 -7483.598
35507.611 1625 -7483.647
35307.611 1625 -7483.759
35107.611 1625 -7483.939
34907.612 1625 -7484.193
34707.612 1625 -7484.525
34507.612 1625 -7484.939
34307.613 1625 -7485.441
34107.614 1625 -7486.034
33907.615 1625 -7486.725
33707.617 1625 -7487.518
33507.619 1625 -7488.417
33307.621 1625 -7489.41
33107.624 1625 -7490.471
32907.627 1625 -7491.57
32707.63 1625 -7492.678
32507.633 1625 -7493.768
32307.636 1625 -7494.809
32107.638 1625 -7495.774
31907.64 1625 -7496.633
31707.641 1625 -7497.359
31507.642 1625 -7497.921
31307.642 1625 -7498.292
31107.642 1625 -7498.442
30907.642 1625 -7498.343
30707.643 1625 -7497.966
30507.644 1625 -7497.283
30307.647 1625 -7496.264
30107.651 1625 -7494.88
29907.659 1625 -7493.103
29707.671 1625 -7490.904
29507.689 1625 -7488.254
29307.714 1625 -7485.125
29107.747 1625 -7481.487
28907.79 1625 -7477.311
28707.847 1625 -7472.57
28507.918 1625 -7467.233
28308.007 1625 -7461.273
28108.116 1625 -7454.66
27908.25 1625 -7447.366
27708.409 1625 -7439.378
27508.598 1625 -7430.697
27308.817 1625 -7421.328
27109.07 1625 -7411.273
26909.359 1625 -7400.535
26709.685 1625 -7389.119
26510.051 1625 -7377.026
26310.459 1625 -7364.261
26110.911 1625 -7350.826
25911.409 1625 -7336.725
25711.955 1625 -7321.961
25512.55 1625 -7306.537
25313.198 1625 -7290.457
25113.899 1625 -7273.723
24914.656 1625 -7256.34
24715.471 1625 -7238.31
24516.344 1625 -7219.637
24317.279 1625 -7200.323
24118.277 1625 -7180.373
23919.339 1625 -7159.79
23720.467 1625 -7138.576
23521.663 1625 -7116.735
23322.929 1625 -7094.271
23124.266 1625 -7071.186
22925.675 1625 -7047.484
22727.159 1625 -7023.168
22528.719 1625 -6998.241
22330.355 1625 -6972.707
22132.071 1625 -6946.568
21933.867 1625 -6919.825
21735.746 1625 -6892.478
21537.709 1625 -6864.527
21339.757 1625 -6835.974
21141.894 1625 -6806.819
20944.12 1625 -6777.062
20746.438 1625 -6746.703
20548.848 1625 -6715.744
20351.354 1625 -6684.184
20153.957 1625 -6652.024
19956.658 1625 -6619.264
19759.46 1625 -6585.905
19562.364 1625 -6551.946
19365.373 1625 -6517.387
19168.487 1625 -6482.23
18971.709 1625 -6446.473
18775.042 1625 -6410.118
18578.485 1625 -6373.163
18382.043 1625 -6335.61
18185.716 1625 -6297.458
17989.506 1625 -6258.706
17793.415 1625 -6219.356
17597.446 1625 -6179.406
17401.6 1625 -6138.857
17205.878 1625 -6097.708
17010.284 1625 -6055.959
16814.819 1625 -6013.61
16619.486 1625 -5970.659
16424.288 1625 -5927.097
16229.229 1625 -5882.913
16034.316 1625 -5838.096
15839.551 1625 -5792.634
15644.941 1625 -5746.516
15450.49 1625 -5699.733
15256.203 1625 -5652.274
15062.084 1625 -5604.128
14868.14 1625 -5555.285
14674.375 1625 -5505.736
14480.795 1625 -5455.471
14287.404 1625 -5404.481
14094.209 1625 -5352.755
13901.214 1625 -5300.286
13708.426 1625 -5247.065
13515.849 1625 -5193.082
13323.489 1625 -5138.331
13131.353 1625 -5082.802
12939.445 1625 -5026.489
12747.771 1625 -4969.383
12556.337 1625 -4911.478
12365.149 1625 -4852.767
12174.212 1625 -4793.244
11983.532 1625 -4732.901
11793.116 1625 -4671.734
11602.968 1625 -4609.736
11413.095 1625 -4546.902
11223.502 1625 -4483.227
11034.199 1625 -4418.698
10845.212 1625 -4353.245
10656.579 1625 -4286.782
10468.336 1625 -4219.221
10280.522 1625 -4150.476
10093.18 1625 -4080.457
9906.351 1625 -4009.078
9720.083 1625 -3936.25
9534.423 1625 -3861.885
9349.423 1625 -3785.894
9165.137 1625 -3708.187
8981.623 1625 -3628.675
8798.941 1625 -3547.267
8617.158 1625 -3463.875
8436.34 1625 -3378.407
8256.563 1625 -3290.774
8077.902 1625 -3200.886
7900.44 1625 -3108.654
7724.264 1625 -3013.991
7549.464 1625 -2916.809
7376.137 1625 -2817.024
7204.384 1625 -2714.553
7034.313 1625 -2609.316
6866.033 1625 -2501.237
6699.663 1625 -2390.243
6535.322 1625 -2276.265
6373.135 1625 -2159.242
6213.233 1625 -2039.118
6055.748 1625 -1915.841
5900.815 1625 -1789.373
5748.573 1625 -1659.678
5599.161 1625 -1526.733
5452.684 1625 -1390.56
5309.114 1625 -1251.326
5168.382 1625 -1109.223
5030.415 1625 -964.434
4895.135 1625 -817.13
4762.461 1625 -667.476
4632.308 1625 -515.623
4504.589 1625 -361.716
4379.218 1625 -205.891
4256.106 1625 -48.276
87583.547 812.5 -52.441
87390.588 812.5 -105.042
87197.68 812.5 -157.829
87004.83 812.5 -210.826
86812.045 812.5 -264.061
86619.332 812.5 -317.558
86426.7 812.5 -371.344
86234.156 812.5 -425.443
86041.708 812.5 -479.883
85849.363 812.5 -534.687
85657.131 812.5 -589.883
85465.018 812.5 -645.495
85273.034 812.5 -701.549
85081.187 812.5 -758.07
84889.485 812.5 -815.084
84697.939 812.5 -872.617
84506.557 812.5 -930.693
84315.348 812.5 -989.337
84124.323 812.5 -1048.576
83933.49 812.5 -1108.432
83742.851 812.5 -1168.905
83552.395 812.5 -1229.95
83362.109 812.5 -1291.523
83171.98 812.5 -1353.577
82981.993 812.5 -1416.067
82792.135 812.5 -1478.946
82602.391 812.5 -1542.171
82412.747 812.5 -1605.694
82223.189 812.5 -1669.471
82033.7 812.5 -1733.458
81844.267 812.5 -1797.607
81654.875 812.5 -1861.875
81465.507 812.5 -1926.216
81276.148 812.5 -1990.586
81086.784 812.5 -2054.939
80897.399 812.5 -2119.23
80707.978 812.5 -2183.413
80518.505 812.5 -2247.445
80328.966 812.5 -2311.279
80139.345 812.5 -2374.871
79949.628 812.5 -2438.175
79759.8 812.5 -2501.146
79569.847 812.5 -2563.738
79379.754 812.5 -2625.906
79189.509 812.5 -2687.603
78999.096 812.5 -2748.785
78808.505 812.5 -2809.404
78617.721 812.5 -2869.416
78426.732 812.5 -2928.774
78235.53 812.5 -2987.439
78044.119 812.5 -3045.419
77852.51 812.5 -3102.743
77660.713 812.5 -3159.435
77468.739 812.5 -3215.524
77276.597 812.5 -3271.036
77084.298 812.5 -3325.998
76891.849 812.5 -3380.437
76699.262 812.5 -3434.381
76506.543 812.5 -3487.856
76313.703 812.5 -3540.891
76120.75 812.5 -3593.511
75927.691 812.5 -3645.746
75734.536 812.5 -3697.621
75541.292 812.5 -3749.166
75347.968 812.5 -3800.406
75154.57 812.5 -3851.37
74961.107 812.5 -3902.084
74767.585 812.5 -3952.577
74574.014 812.5 -4002.877
74380.399 812.5 -4053.01
74186.748 812.5 -4103.004
73993.069 812.5 -4152.887
73799.368 812.5 -4202.686
73605.653 812.5 -4252.429
73411.93 812.5 -4302.144
73218.207 812.5 -4351.858
73024.491 812.5 -4401.599
72830.789 812.5 -4451.394
72637.107 812.5 -4501.266
72443.444 812.5 -4551.21
72249.794 812.5 -4601.208
72056.154 812.5 -4651.243
71862.519 812.5 -4701.298
71668.884 812.5 -4751.354
71475.246 812.5 -4801.396
71281.599 812.5 -4851.404
71087.939 812.5 -4901.362
70894.262 812.5 -4951.253
70700.562 812.5 -5001.059
70506.837 812.5 -5050.762
70313.08 812.5 -5100.345
70119.289 812.5 -5149.791
69925.458 812.5 -5199.082
69731.584 812.5 -5248.2
69537.661 812.5 -5297.129
69343.686 812.5 -5345.85
69149.655 812.5 -5394.347
68955.564 812.5 -5442.601
68761.408 812.5 -5490.595
68567.183 812.5 -5538.312
68372.886 812.5 -5585.733
68178.514 812.5 -5632.842
67984.061 812.5 -5679.621
67789.526 812.5 -5726.052
67594.903 812.5 -5772.118
67400.19 812.5 -5817.8
67205.384 812.5 -5863.082
67010.481 812.5 -5907.945
66815.477 812.5 -5952.371
66620.37 812.5 -5996.338
66425.156 812.5 -6039.829
66229.832 812.5 -6082.823
66034.395 812.5 -6125.3
65838.842 812.5 -6167.241
65643.17 812.5 -6208.626
65447.378 812.5 -6249.434
65251.462 812.5 -6289.647
65055.421 812.5 -6329.243
64859.253 812.5 -6368.204
64662.955 812.5 -6406.508
64466.527 812.5 -6444.136
64269.966 812.5 -6481.067
64073.273 812.5 -6517.282
63876.445 812.5 -6552.759
63679.481 812.5 -6587.479
63482.383 812.5 -6621.421
63285.149 812.5 -6654.572
63087.787 812.5 -6686.947
62890.304 812.5 -6718.575
62692.707 812.5 -6749.481
62495.002 812.5 -6779.692
62297.196 812.5 -6809.236
62099.296 812.5 -6838.14
61901.307 812.5 -6866.43
61703.235 812.5 -6894.133
61505.085 812.5 -6921.277
61306.861 812.5 -6947.871
61108.564 812.5 -6973.909
60910.193 812.5 -6999.382
60711.749 812.5 -7024.285
60513.234 812.5 -7048.607
60314.647 812.5 -7072.343
60115.99 812.5 -7095.485
59917.265 812.5 -7118.023
59718.47 812.5 -7139.952
59519.609 812.5 -7161.263
59320.682 812.5 -7181.948
59121.69 812.5 -7202
58922.634 812.5 -7221.41
58723.516 812.5 -7240.171
58524.337 812.5 -7258.274
58325.099 812.5 -7275.713
58125.803 812.5 -7292.479
57926.451 812.5 -7308.564
57727.044 812.5 -7323.959
57527.585 812.5 -7338.659
57328.076 812.5 -7352.653
57128.517 812.5 -7365.934
56928.912 812.5 -7378.495
56729.262 812.5 -7390.327
56529.571 812.5 -7401.422
56329.839 812.5 -7411.772
56130.069 812.5 -7421.369
55930.265 812.5 -7430.205
55730.428 812.5 -7438.288
55530.564 812.5 -7445.646
55330.675 812.5 -7452.309
55130.765 812.5 -7458.31
54930.837 812.5 -7463.677
54730.894 812.5 -7468.443
54530.938 812.5 -7472.638
54330.971 812.5 -7476.293
54130.996 812.5 -7479.439
53931.014 812.5 -7482.106
53731.026 812.5 -7484.326
53531.035 812.5 -7486.129
53331.04 812.5 -7487.547
53131.042 812.5 -7488.61
52931.044 812.5 -7489.349
52731.044 812.5 -7489.795
52531.044 812.5 -7489.979
52331.044 812.5 -7489.931
52131.045 812.5 -7489.683
51931.045 812.5 -7489.265
51731.046 812.5 -7488.708
51531.047 812.5 -7488.042
51331.048 812.5 -7487.3
51131.05 812.5 -7486.511
50931.051 812.5 -7485.706
50731.053 812.5 -7484.916
50531.054 812.5 -7484.172
50331.056 812.5 -7483.505
50131.056 812.5 -7482.931
49931.057 812.5 -7482.446
49731.057 812.5 -7482.046
49531.058 812.5 -7481.725
49331.058 812.5 -7481.477
49131.058 812.5 -7481.297
48931.058 812.5 -7481.18
48731.058 812.5 -7481.121
48531.058 812.5 -7481.113
48331.058 812.5 -7481.152
48131.058 812.5 -7481.233
47931.058 812.5 -7481.349
47731.058 812.5 -7481.496
47531.058 812.5 -7481.668
47331.058 812.5 -7481.86
47131.058 812.5 -7482.066
46931.058 812.5 -7482.281
46731.059 812.5 -7482.5
46531.059 812.5 -7482.717
46331.059 812.5 -7482.927
46131.059 812.5 -7483.125
45931.059 812.5 -7483.304
45731.059 812.5 -7483.461
45531.059 812.5 -7483.588
45331.059 812.5 -7483.682
45131.059 812.5 -7483.736
44931.059 812.5 -7483.745
44731.059 812.5 -7483.705
44531.059 812.5 -7483.613
44331.059 812.5 -7483.476
44131.059 812.5 -7483.299
43931.059 812.5 -7483.09
43731.059 812.501 -7482.853
43531.06 812.501 -7482.595
43331.06 812.501 -7482.322
43131.06 812.501 -7482.041
42931.06 812.501 -7481.757
42731.06 812.501 -7481.477
42531.061 812.501 -7481.206
42331.061 812.501 -7480.952
42131.061 812.501 -7480.719
41931.061 812.501 -7480.514
41731.061 812.501 -7480.344
41531.061 812.501 -7480.213
41331.061 812.501 -7480.13
41131.061 812.501 -7480.098
40931.061 812.501 -7480.126
40731.061 812.501 -7480.218
40531.061 812.501 -7480.381
40331.061 812.501 -7480.622
40131.062 812.501 -7480.945
39931.062 812.501 -7481.358
39731.063 812.501 -7481.866
39531.064 812.5 -7482.476
39331.065 812.5 -7483.193
39131.067 812.5 -7484.024
38931.069 812.5 -7484.965
38731.072 812.499 -7485.999
38531.075 812.499 -7487.105
38331.078 812.498 -7488.265
38131.082 812.498 -7489.46
37931.085 812.498 -7490.67
37731.089 812.497 -7491.877
37531.092 812.497 -7493.061
37331.096 812.496 -7494.204
37131.099 812.496 -7495.286
36931.101 812.496 -7496.287
36731.103 812.495 -7497.19
36531.105 812.495 -7497.975
36331.106 812.495 -7498.622
36131.106 812.495 -7499.113
35931.107 812.495 -7499.428
35731.107 812.495 -7499.548
35531.107 812.495 -7499.455
35331.107 812.495 -7499.128
35131.108 812.495 -7498.55
34931.11 812.495 -7497.7
34731.113 812.496 -7496.56
34531.118 812.496 -7495.11
34331.126 812.497 -7493.332
34131.137 812.497 -7491.205
33931.153 812.498 -7488.712
33731.174 812.499 -7485.832
33531.201 812.5 -7482.548
33331.235 812.502 -7478.845
33131.278 812.503 -7474.721
32931.329 812.504 -7470.172
32731.391 812.506 -7465.196
32531.464 812.507 -7459.79
32331.55 812.509 -7453.95
32131.648 812.51 -7447.675
31931.761 812.512 -7440.961
31731.889 812.513 -7433.806
31532.034 812.515 -7426.206
31332.196 812.516 -7418.159
31132.376 812.517 -7409.662
30932.577 812.518 -7400.712
30732.798 812.519 -7391.307
30533.041 812.519 -7381.444
30333.308 812.52 -7371.119
30133.599 812.52 -7360.331
29933.916 812.52 -7349.075
29734.26 812.519 -7337.351
29534.633 812.519 -7325.154
29335.034 812.518 -7312.483
29135.467 812.516 -7299.334
28935.932 812.514 -7285.704
28736.431 812.512 -7271.592
28536.964 812.509 -7256.994
28337.534 812.506 -7241.907
28138.142 812.503 -7226.329
27938.789 812.499 -7210.258
27739.476 812.494 -7193.686
27540.208 812.489 -7176.601
27340.985 812.484 -7158.988
27141.81 812.478 -7140.833
26942.688 812.473 -7122.123
26743.619 812.467 -7102.844
26544.608 812.461 -7082.981
26345.657 812.456 -7062.522
26146.77 812.45 -7041.45
25947.951 812.445 -7019.754
25749.202 812.441 -6997.418
25550.528 812.436 -6974.428
25351.932 812.433 -6950.771
25153.419 812.43 -6926.432
24954.992 812.427 -6901.398
24756.656 812.426 -6875.653
24558.415 812.425 -6849.184
24360.274 812.425 -6821.977
24162.238 812.427 -6794.017
23964.312 812.429 -6765.291
23766.501 812.433 -6735.784
23568.81 812.438 -6705.482
23371.245 812.444 -6674.37
23173.811 812.452 -6642.435
22976.515 812.462 -6609.663
22779.361 812.473 -6576.039
22582.358 812.486 -6541.549
22385.51 812.501 -6506.179
22188.824 812.518 -6469.923
21992.301 812.536 -6432.796
21795.939 812.556 -6394.822
21599.739 812.576 -6356.02
21403.7 812.597 -6316.414
21207.821 812.619 -6276.025
21012.101 812.64 -6234.874
20816.537 812.662 -6192.983
20621.128 812.682 -6150.375
20425.873 812.702 -6107.07
20230.768 812.72 -6063.092
20035.812 812.737 -6018.461
19841.001 812.752 -5973.199
19646.332 812.765 -5927.329
19451.803 812.775 -5880.871
19257.409 812.783 -5833.849
19063.148 812.787 -5786.283
18869.015 812.788 -5738.195
18675.007 812.785 -5689.606
18481.12 812.778 -5640.539
18287.348 812.767 -5591.015
18093.689 812.751 -5541.054
17900.137 812.73 -5490.68
17706.688 812.703 -5439.912
17513.336 812.671 -5388.773
17320.078 812.634 -5337.283
17126.908 812.59 -5285.463
16933.821 812.539 -5233.335
16740.811 812.482 -5180.92
16547.884 812.418 -5128.203
16355.058 812.348 -5075.117
16162.355 812.273 -5021.588
15969.796 812.194 -4967.541
15777.404 812.112 -4912.902
15585.203 812.028 -4857.599
15393.215 811.942 -4801.556
15201.467 811.855 -4744.701
15009.984 811.77 -4686.96
14818.793 811.685 -4628.258
14627.922 811.602 -4568.522
14437.402 811.523 -4507.678
14247.264 811.447 -4445.652
14057.539 811.376 -4382.371
13868.263 811.311 -4317.761
13679.472 811.253 -4251.749
13491.203 811.202 -4184.262
13303.496 811.159 -4115.227
13116.392 811.126 -4044.572
12929.936 811.104 -3972.226
12744.174 811.092 -3898.119
12559.152 811.093 -3822.179
12374.922 811.107 -3744.34
12191.536 811.134 -3664.533
12009.049 811.177 -3582.693
11827.516 811.235 -3498.756
11646.998 811.311 -3412.659
11467.555 811.403 -3324.344
11289.25 811.515 -3233.752
11112.147 811.645 -3140.833
10936.286 811.796 -3045.585
10761.675 811.965 -2948.064
10588.322 812.153 -2848.322
10416.235 812.359 -2746.413
10245.418 812.583 -2642.389
10075.875 812.824 -2536.302
9907.608 813.082 -2428.201
9740.619 813.357 -2318.136
9574.909 813.647 -2206.156
9410.478 813.953 -2092.305
9247.325 814.274 -1976.632
9085.447 814.61 -1859.179
8924.843 814.96 -1739.991
8765.509 815.324 -1619.11
8607.442 815.701 -1496.577
8450.638 816.092 -1372.431
8295.093 816.495 -1246.713
8140.801 816.91 -1119.458
7987.759 817.337 -990.705
7835.959 817.776 -860.488
7685.398 818.226 -728.842
7536.068 818.687 -595.799
7387.965 819.158 -461.393
7241.082 819.639 -325.655
7095.414 820.13 -188.614
6950.953 820.631 -50.3
66835.414 1624.969 -6425.734
67031.389 1624.967 -6385.813
67227.26 1624.965 -6345.382
67423.028 1624.963 -6304.457
67618.695 1624.961 -6263.053
67814.264 1624.959 -6221.186
68009.736 1624.957 -6178.871
68205.114 1624.955 -6136.121
68400.4 1624.953 -6092.953
68595.595 1624.951 -6049.382
68790.704 1624.949 -6005.421
68985.728 1624.947 -5961.086
69180.67 1624.945 -5916.392
69375.533 1624.943 -5871.353
69570.319 1624.941 -5825.985
69765.032 1624.938 -5780.302
69959.674 1624.936 -5734.319
70154.248 1624.934 -5688.05
70348.758 1624.932 -5641.511
70543.207 1624.93 -5594.717
70737.598 1624.928 -5547.681
70931.933 1624.926 -5500.42
71126.217 1624.924 -5452.946
71320.453 1624.922 -5405.276
71514.644 1624.92 -5357.423
71708.793 1624.918 -5309.403
71902.905 1624.916 -5261.23
72096.982 1624.914 -5212.919
72291.029 1624.912 -5164.485
72485.048 1624.91 -5115.941
72679.043 1624.908 -5067.303
72873.018 1624.906 -5018.585
73066.974 1624.904 -4969.789
73260.906 1624.902 -4920.904
73454.812 1624.9 -4871.913
73648.688 1624.898 -4822.802
73842.529 1624.896 -4773.557
74036.332 1624.893 -4724.164
74230.094 1624.891 -4674.607
74423.81 1624.889 -4624.873
74617.477 1624.887 -4574.947
74811.09 1624.885 -4524.814
75004.646 1624.883 -4474.46
75198.14 1624.881 -4423.871
75391.569 1624.879 -4373.032
75584.928 1624.877 -4321.929
75778.214 1624.875 -4270.546
75971.421 1624.873 -4218.871
76164.546 1624.871 -4166.888
76357.584 1624.869 -4114.583
76550.531 1624.867 -4061.942
76743.382 1624.865 -4008.95
76936.132 1624.863 -3955.593
77128.777 1624.861 -3901.857
77321.313 1624.859 -3847.728
77513.733 1624.857 -3793.19
77706.033 1624.855 -3738.231
77898.208 1624.853 -3682.836
78090.253 1624.851 -3626.99
78282.162 1624.849 -3570.68
78473.93 1624.847 -3513.892
78665.555 1624.845 -3456.622
78857.039 1624.843 -3398.883
79048.384 1624.841 -3340.685
79239.593 1624.839 -3282.041
79430.668 1624.837 -3222.962
79621.612 1624.835 -3163.462
79812.427 1624.833 -3103.552
80003.117 1624.831 -3043.244
80193.684 1624.829 -2982.55
80384.132 1624.827 -2921.482
80574.463 1624.825 -2860.052
80764.68 1624.823 -2798.271
80954.787 1624.821 -2736.152
81144.787 1624.819 -2673.706
81334.683 1624.817 -2610.946
81524.479 1624.815 -2547.883
81714.178 1624.813 -2484.528
81903.783 1624.811 -2420.894
82093.298 1624.809 -2356.992
82282.726 1624.807 -2292.835
82472.072 1624.805 -2228.432
82661.338 1624.803 -2163.798
82850.529 1624.801 -2098.942
83039.648 1624.799 -2033.877
83228.699 1624.797 -1968.614
83417.686 1624.795 -1903.165
83606.612 1624.793 -1837.542
83795.482 1624.791 -1771.755
83984.299 1624.789 -1705.817
84173.067 1624.787 -1639.737
84361.785 1624.785 -1573.514
84550.45 1624.783 -1507.143
84739.062 1624.781 -1440.62
84927.619 1624.779 -1373.938
85116.118 1624.777 -1307.095
85304.558 1624.775 -1240.085
85492.937 1624.773 -1172.903
85681.253 1624.771 -1105.545
85869.504 1624.769 -1038.006
86057.688 1624.767 -970.28
86245.803 1624.765 -902.365
86433.848 1624.763 -834.254
86621.821 1624.761 -765.944
86809.719 1624.759 -697.429
86997.54 1624.757 -628.704
87185.284 1624.755 -559.766
87372.946 1624.753 -490.609
87560.527 1624.751 -421.229
87748.022 1624.749 -351.621
87935.432 1624.747 -281.78
88122.752 1624.745 -211.702
88309.982 1624.743 -141.383
88497.12 1624.741 -70.817
71748.861 3250 -6048.656
71553.311 3250 -6090.61
71357.671 3250 -6132.143
71161.941 3250 -6173.25
70966.121 3250 -6213.926
70770.211 3250 -6254.164
70574.21 3250 -6293.96
70378.119 3250 -6333.307
70181.937 3250 -6372.201
69985.665 3250 -6410.635
69789.302 3250 -6448.605
69592.849 3250 -6486.104
69396.306 3250 -6523.127
69199.672 3250 -6559.669
69002.949 3250 -6595.725
68806.137 3250 -6631.288
68609.235 3250 -6666.353
68412.244 3250 -6700.915
68215.164 3250 -6734.968
68017.996 3250 -6768.508
67820.741 3250 -6801.528
67623.399 3250 -6834.023
67425.97 3250 -6865.988
67228.455 3250 -6897.418
67030.854 3250 -6928.304
66833.167 3250 -6958.63
66635.391 3250 -6988.371
66437.524 3250 -7017.505
66239.565 3250 -7046.008
66041.514 3250 -7073.857
65843.368 3250 -7101.028
65645.128 3250 -7127.499
65446.792 3250 -7153.246
65248.361 3250 -7178.246
65049.834 3250 -7202.474
64851.212 3250 -7225.908
64652.495 3250 -7248.523
64453.684 3250 -7270.297
64254.78 3250 -7291.205
64055.784 3250 -7311.224
63856.699 3250 -7330.33
63657.526 3250 -7348.499
63458.268 3250 -7365.707
63258.928 3250 -7381.937
63059.511 3250 -7397.19
62860.022 3250 -7411.474
62660.466 3250 -7424.794
62460.849 3250 -7437.157
62261.175 3250 -7448.569
62061.449 3250 -7459.037
61861.676 3250 -7468.566
61661.861 3250 -7477.164
61462.009 3250 -7484.839
61262.124 3250 -7491.618
61062.212 3250 -7497.543
60862.277 3250 -7502.654
60662.324 3250 -7506.994
60462.357 3250 -7510.602
60262.379 3250 -7513.521
60062.392 3250 -7515.792
59862.399 3250 -7517.455
59662.402 3250 -7518.552
59462.402 3250 -7519.126
59262.403 3250 -7519.215
59062.403 3250 -7518.863
58862.404 3250 -7518.11
58662.407 3250 -7516.998
58462.413 3250 -7515.568
58262.42 3250 -7513.861
58062.429 3250 -7511.918
57862.441 3250 -7509.78
57662.454 3250 -7507.49
57462.468 3250 -7505.087
57262.484 3250 -7502.613
57062.499 3250 -7500.109
56862.515 3250 -7497.616
56662.53 3250 -7495.176
56462.543 3250 -7492.83
56262.556 3250 -7490.618
56062.566 3250 -7488.582
55862.574 3250 -7486.761
55662.581 3250 -7485.162
55462.586 3250 -7483.776
55262.589 3250 -7482.592
55062.592 3250 -7481.6
54862.593 3250 -7480.789
54662.594 3250 -7480.149
54462.595 3250 -7479.67
54262.595 3250 -7479.342
54062.595 3250 -7479.153
53862.595 3250 -7479.093
53662.595 3250 -7479.153
53462.595 3250 -7479.322
53262.595 3250 -7479.588
53062.596 3250 -7479.943
52862.596 3250 -7480.376
52662.597 3250 -7480.875
52462.598 3250 -7481.431
52262.599 3250 -7482.034
52062.6 3250 -7482.672
51862.601 3250 -7483.337
51662.602 3250 -7484.016
51462.603 3250 -7484.7
51262.604 3250 -7485.378
51062.605 3250 -7486.04
50862.606 3250 -7486.676
50662.607 3250 -7487.275
50462.608 3250 -7487.827
50262.609 3250 -7488.322
50062.609 3250 -7488.757
49862.609 3250 -7489.137
49662.61 3250 -7489.462
49462.61 3250 -7489.737
49262.61 3250 -7489.963
49062.61 3250 -7490.143
48862.61 3250 -7490.28
48662.61 3250 -7490.376
48462.61 3250 -7490.435
48262.61 3250 -7490.459
48062.61 3250 -7490.449
47862.61 3250 -7490.41
47662.61 3250 -7490.344
47462.61 3250 -7490.253
47262.61 3250 -7490.14
47062.61 3250 -7490.008
46862.61 3250 -7489.859
46662.61 3250 -7489.697
46462.61 3250 -7489.522
46262.611 3250 -7489.34
46062.611 3250 -7489.151
45862.611 3250 -7488.958
45662.611 3250 -7488.765
45462.611 3250 -7488.574
45262.611 3250 -7488.388
45062.611 3250 -7488.208
44862.611 3250 -7488.039
44662.611 3250 -7487.882
44462.611 3250 -7487.738
44262.611 3250 -7487.607
44062.611 3250 -7487.489
43862.611 3250 -7487.383
43662.611 3250 -7487.29
43462.611 3250 -7487.209
43262.611 3250 -7487.14
43062.611 3250 -7487.083
42862.611 3250 -7487.037
42662.611 3250 -7487.002
42462.611 3250 -7486.979
42262.611 3250 -7486.966
42062.611 3250 -7486.965
41862.611 3250 -7486.973
41662.611 3250 -7486.992
41462.611 3250 -7487.022
41262.611 3250 -7487.061
41062.611 3250 -7487.109
40862.611 3250 -7487.167
40662.611 3250 -7487.235
40462.611 3250 -7487.311
40262.611 3250 -7487.396
40062.612 3250 -7487.49
39862.612 3250 -7487.592
39662.612 3250 -7487.703
39462.612 3250 -7487.821
39262.612 3250 -7487.947
39062.612 3250 -7488.081
38862.612 3250 -7488.221
38662.612 3250 -7488.365
38462.612 3250 -7488.512
38262.612 3250 -7488.66
38062.612 3250 -7488.807
37862.612 3250 -7488.951
37662.612 3250 -7489.09
37462.612 3250 -7489.223
37262.612 3250 -7489.348
37062.612 3250 -7489.462
36862.612 3250 -7489.565
36662.612 3250 -7489.654
36462.612 3250 -7489.727
36262.612 3250 -7489.783
36062.612 3250 -7489.82
35862.612 3250 -7489.835
35662.612 3250 -7489.828
35462.612 3250 -7489.796
35262.612 3250 -7489.738
35062.612 3250 -7489.652
34862.612 3250 -7489.535
34662.612 3250 -7489.387
34462.612 3250 -7489.205
34262.613 3250 -7488.987
34062.613 3250 -7488.732
33862.613 3250 -7488.437
33662.613 3250 -7488.102
33462.614 3250 -7487.724
33262.614 3250 -7487.308
33062.614 3250 -7486.862
32862.615 3250 -7486.392
32662.616 3250 -7485.906
32462.616 3250 -7485.412
32262.617 3250 -7484.917
32062.617 3250 -7484.428
31862.618 3250 -7483.954
31662.619 3250 -7483.501
31462.619 3250 -7483.078
31262.619 3250 -7482.691
31062.62 3250 -7482.348
30862.62 3250 -7482.057
30662.62 3250 -7481.824
30462.62 3250 -7481.659
30262.62 3250 -7481.567
30062.62 3250 -7481.556
29862.62 3250 -7481.635
29662.62 3250 -7481.81
29462.62 3250 -7482.089
29262.621 3250 -7482.479
29062.621 3250 -7482.988
28862.622 3250 -7483.623
28662.624 3250 -7484.392
28462.626 3250 -7485.302
28262.629 3250 -7486.36
28062.633 3250 -7487.575
27862.637 3250 -7488.95
27662.643 3250 -7490.465
27462.65 3250 -7492.082
27262.657 3250 -7493.763
27062.664 3250 -7495.47
26862.671 3250 -7497.165
26662.678 3250 -7498.81
26462.684 3250 -7500.368
26262.689 3250 -7501.801
26062.693 3250 -7503.07
25862.696 3250 -7504.139
25662.698 3250 -7504.968
25462.698 3250 -7505.52
25262.699 3250 -7505.757
25062.699 3250 -7505.642
24862.699 3250 -7505.135
24662.702 3250 -7504.199
24462.706 3250 -7502.796
24262.716 3250 -7500.888
24062.731 3250 -7498.436
23862.754 3250 -7495.403
23662.787 3250 -7491.75
23462.834 3250 -7487.438
23262.897 3250 -7482.431
23062.979 3250 -7476.689
22863.085 3250 -7470.174
22663.22 3250 -7462.848
22463.387 3250 -7454.673
22263.593 3250 -7445.614
22063.84 3250 -7435.672
21864.132 3250 -7424.873
21664.471 3250 -7413.239
21464.858 3250 -7400.796
21265.296 3250 -7387.568
21065.786 3250 -7373.579
20866.329 3250 -7358.855
20666.926 3250 -7343.419
20467.577 3250 -7327.297
20268.282 3250 -7310.513
20069.043 3250 -7293.092
19869.857 3250 -7275.057
19670.726 3250 -7256.434
19471.649 3250 -7237.248
19272.624 3250 -7217.522
19073.651 3250 -7197.281
18874.728 3250 -7176.551
18675.855 3250 -7155.354
18477.029 3250 -7133.715
18278.249 3250 -7111.659
18079.513 3250 -7089.21
17880.819 3250 -7066.393
17682.165 3250 -7043.231
17483.548 3250 -7019.748
17284.967 3250 -6995.969
17086.418 3250 -6971.918
16887.9 3250 -6947.619
16689.409 3250 -6923.094
16490.947 3250 -6898.338
16292.518 3250 -6873.323
16094.125 3250 -6848.017
15895.774 3250 -6822.391
15697.468 3250 -6796.416
15499.212 3250 -6770.062
15301.01 3250 -6743.298
15102.869 3250 -6716.094
14904.793 3250 -6688.421
14706.787 3250 -6660.248
14508.858 3250 -6631.546
14311.01 3250 -6602.283
14113.251 3250 -6572.43
13915.586 3250 -6541.956
13718.023 3250 -6510.831
13520.568 3250 -6479.024
13323.23 3250 -6446.505
13126.016 3250 -6413.242
12928.933 3250 -6379.205
12731.992 3250 -6344.363
12535.2 3250 -6308.685
12338.567 3250 -6272.14
12142.104 3250 -6234.697
11945.819 3250 -6196.324
11749.725 3250 -6156.992
11553.833 3250 -6116.667
11358.154 3250 -6075.32
11162.7 3250 -6032.919
82721.368 3250 -2979.84
82530.83 3250 -3040.626
82340.358 3250 -3101.624
82149.945 3250 -3162.801
81959.578 3250 -3224.124
81769.248 3250 -3285.56
81578.943 3250 -3347.075
81388.653 3250 -3408.634
81198.366 3250 -3470.205
81008.072 3250 -3531.753
80817.759 3250 -3593.242
80627.416 3250 -3654.639
80437.033 3250 -3715.909
80246.597 3250 -3777.017
80056.098 3250 -3837.929
79865.525 3250 -3898.608
79674.868 3250 -3959.021
79484.115 3250 -4019.133
79293.257 3250 -4078.908
79102.283 3250 -4138.312
78911.183 3250 -4197.31
78719.948 3250 -4255.868
78528.568 3250 -4313.951
78337.035 3250 -4371.527
78145.344 3250 -4428.574
77953.497 3250 -4485.098
77761.499 3250 -4541.104
77569.352 3250 -4596.598
77377.06 3250 -4651.584
77184.624 3250 -4706.07
76992.049 3250 -4760.059
76799.337 3250 -4813.558
76606.492 3250 -4866.571
76413.514 3250 -4919.105
76220.409 3250 -4971.164
76027.177 3250 -5022.754
75833.822 3250 -5073.879
75640.346 3250 -5124.546
75446.752 3250 -5174.758
75253.042 3250 -5224.521
75059.218 3250 -5273.84
74865.283 3250 -5322.72
74671.239 3250 -5371.165
74477.089 3250 -5419.181
74282.833 3250 -5466.772
74088.476 3250 -5513.944
73894.018 3250 -5560.7
73699.462 3250 -5607.045
73504.809 3250 -5652.984
73310.063 3250 -5698.522
73115.223 3250 -5743.663
72920.294 3250 -5788.412
72725.276 3250 -5832.773
72530.17 3250 -5876.746
72334.976 3250 -5920.327
72139.693 3250 -5963.509
71944.321 3250 -6006.287
10967.483 3250 -5989.442
10772.509 3250 -5944.889
10577.783 3250 -5899.263
10383.311 3250 -5852.569
10189.097 3250 -5804.809
9995.147 3250 -5755.99
9801.466 3250 -5706.115
9608.058 3250 -5655.191
9414.928 3250 -5603.223
9222.08 3250 -5550.216
9029.519 3250 -5496.179
8837.248 3250 -5441.117
8645.272 3250 -5385.037
8453.593 3250 -5327.948
8262.215 3250 -5269.858
8071.142 3250 -5210.774
7880.377 3250 -5150.704
7689.921 3250 -5089.659
7499.778 3250 -5027.646
7309.95 3250 -4964.676
7120.439 3250 -4900.758
6931.248 3250 -4835.901
6742.377 3250 -4770.116
6553.828 3250 -4703.414
6365.603 3250 -4635.804
6177.702 3250 -4567.297
5990.127 3250 -4497.904
5802.877 3250 -4427.637
5615.954 3250 -4356.505
5429.363 3250 -4284.507
5243.139 3250 -4211.565
5057.328 3250 -4137.579
4871.976 3250 -4062.449
4687.134 3250 -3986.074
4502.853 3250 -3908.353
4319.19 3250 -3829.185
4136.201 3250 -3748.469
3953.95 3250 -3666.102
3772.503 3250 -3581.981
3591.928 3250 -3496.002
3412.301 3250 -3408.06
3233.702 3250 -3318.049
3056.215 3250 -3225.865
2879.932 3250 -3131.4
2704.948 3250 -3034.548
2531.369 3250 -2935.202
2359.304 3250 -2833.257
2188.87 3250 -2728.608
2020.193 3250 -2621.151
1853.404 3250 -2510.786
1688.644 3250 -2397.414
1526.061 3250 -2280.943
1365.811 3250 -2161.283
1208.057 3250 -2038.351
1052.969 3250 -1912.072
900.725 3250 -1782.38
751.507 3250 -1649.218
605.503 3250 -1512.541
462.903 3250 -1372.315
323.901 3250 -1228.524
188.689 3250 -1081.163
57.459 3250 -930.246
-69.617 3250 -775.813
-192.608 3250 -618.108
-311.807 3250 -457.515
-427.517 3250 -294.39
-540.047 3250 -129.054
89473 3250 -123
84821 3250 -2277
84620 3250 -2342
84453 3250 -2397
84232 3250 -2467
84050 3250 -2532
83854 3250 -2604
83664 3250 -2669
83484.399 3250 -2739.461
83293.491 3250 -2799.077
83102.689 3250 -2859.034
82911.985 3250 -2919.299
85021 3250 -2209
85196 3250 -2150
85398 3250 -2073
85565 3250 -2019
85767 3250 -1947
85958 3250 -1881
86127 3250 -1816
86311 3250 -1734
86500 3250 -1663
86695 3250 -1586
86858 3250 -1518
87036 3250 -1441
87230 3250 -1361
87405 3250 -1277
87594 3250 -1186
