1893.328 2250 -2397.037
1793.486 2250 -2391.418
1693.65 2250 -2385.703
1593.819 2250 -2379.89
1493.994 2250 -2373.979
1394.174 2250 -2367.972
1294.361 2250 -2361.867
1194.553 2250 -2355.664
1094.752 2250 -2349.365
994.957 2250 -2342.967
895.168 2250 -2336.473
795.386 2250 -2329.881
695.61 2250 -2323.192
595.84 2250 -2316.406
496.077 2250 -2309.523
396.321 2250 -2302.542
296.572 2250 -2295.464
196.83 2250 -2288.288
97.095 2250 -2281.015
-2.633 2250 -2273.645
-102.354 2250 -2266.178
-202.068 2250 -2258.614
-301.774 2250 -2250.952
-401.273 2250 -2241.56
-494.007 2250 -2204.972
-575.14 2250 -2146.923
-639.707 2250 -2070.891
-685.369 2250 -1982.115
-714.638 2250 -1886.592
21309.16 2000 -64.853
21228.537 2000 -124.009
21146.645 2000 -181.397
21063.861 2000 -237.492
20980.23 2000 -292.316
20895.783 2000 -345.875
20810.674 2000 -398.375
20724.927 2000 -449.828
20638.556 2000 -500.226
20551.573 2000 -549.561
20463.993 2000 -597.825
20375.835 2000 -645.028
20287.205 2000 -691.339
20198.137 2000 -736.802
20108.64 2000 -781.412
20018.72 2000 -825.166
19928.39 2000 -868.066
19837.742 2000 -910.289
19746.818 2000 -951.917
19655.623 2000 -992.947
19564.161 2000 -1033.377
19472.435 2000 -1073.206
19380.45 2000 -1112.433
19288.209 2000 -1151.055
19195.717 2000 -1189.07
19102.997 2000 -1226.525
19010.078 2000 -1263.484
18916.914 2000 -1299.823
18823.511 2000 -1335.541
18729.871 2000 -1370.636
18636.001 2000 -1405.107
18541.902 2000 -1438.951
18447.581 2000 -1472.169
18353.04 2000 -1504.757
18258.273 2000 -1536.681
18163.28 2000 -1567.928
18068.069 2000 -1598.503
17972.645 2000 -1628.405
17877.011 2000 -1657.631
17781.173 2000 -1686.182
17685.137 2000 -1714.054
17588.905 2000 -1741.248
17492.484 2000 -1767.76
17395.878 2000 -1793.591
17299.092 2000 -1818.739
17202.131 2000 -1843.203
17104.999 2000 -1866.981
17007.702 2000 -1890.072
16910.245 2000 -1912.479
16812.651 2000 -1934.284
16714.932 2000 -1955.519
16617.091 2000 -1976.184
16519.13 2000 -1996.278
16421.055 2000 -2015.801
16322.867 2000 -2034.752
16224.57 2000 -2053.129
16126.168 2000 -2070.934
16027.664 2000 -2088.164
15929.061 2000 -2104.819
15830.363 2000 -2120.905
15731.589 2000 -2136.515
15632.746 2000 -2151.678
15533.834 2000 -2166.394
15434.858 2000 -2180.663
15335.818 2000 -2194.485
15236.716 2000 -2207.859
15137.555 2000 -2220.786
15038.344 2000 -2233.32
14939.094 2000 -2245.545
14839.806 2000 -2257.454
14740.48 2000 -2269.047
14641.118 2000 -2280.324
14541.72 2000 -2291.284
14442.288 2000 -2301.927
14342.823 2000 -2312.253
14243.325 2000 -2322.263
14143.796 2000 -2331.955
14044.238 2000 -2341.349
13944.659 2000 -2350.509
13845.056 2000 -2359.414
13745.431 2000 -2368.061
13645.783 2000 -2376.452
13546.115 2000 -2384.586
13446.425 2000 -2392.463
13346.716 2000 -2400.083
13246.988 2000 -2407.447
13147.241 2000 -2414.553
13047.475 2000 -2421.402
12947.693 2000 -2427.994
12847.894 2000 -2434.329
12748.079 2000 -2440.407
12648.248 2000 -2446.228
12548.403 2000 -2451.791
12448.544 2000 -2457.098
12348.672 2000 -2462.146
12248.79 2000 -2467.007
12148.898 2000 -2471.65
12048.996 2000 -2476.071
11949.084 2000 -2480.269
11849.163 2000 -2484.245
11749.233 2000 -2487.999
11649.296 2000 -2491.529
11549.351 2000 -2494.838
11449.398 2000 -2497.923
11349.439 2000 -2500.787
11249.474 2000 -2503.427
11149.503 2000 -2505.845
11049.527 2000 -2508.041
10949.547 2000 -2510.03
10849.565 2000 -2511.914
10749.581 2000 -2513.711
10649.596 2000 -2515.42
10549.609 2000 -2517.041
10449.621 2000 -2518.573
10349.631 2000 -2520.018
10249.64 2000 -2521.375
10149.648 2000 -2522.644
10049.655 2000 -2523.826
9949.661 2000 -2524.919
9849.666 2000 -2525.924
9749.671 2000 -2526.841
9649.674 2000 -2527.67
9549.677 2000 -2528.412
9449.679 2000 -2529.088
9349.681 2000 -2529.719
9249.683 2000 -2530.294
9149.684 2000 -2530.812
9049.685 2000 -2531.274
8949.686 2000 -2531.68
8849.687 2000 -2532.029
8749.687 2000 -2532.322
8649.687 2000 -2532.558
8549.687 2000 -2532.738
8449.688 2000 -2532.861
8349.688 2000 -2532.928
8249.688 2000 -2532.939
8149.688 2000 -2532.893
8049.688 2000 -2532.791
7949.688 2000 -2532.633
7849.688 2000 -2532.418
7749.688 2000 -2532.147
7649.689 2000 -2531.819
7549.69 2000 -2531.435
7449.691 2000 -2530.994
7349.692 2000 -2530.492
7249.694 2000 -2529.897
7149.696 2000 -2529.206
7049.699 2000 -2528.42
6949.703 2000 -2527.539
6849.708 2000 -2526.562
6749.714 2000 -2525.489
6649.72 2000 -2524.321
6549.728 2000 -2523.058
6449.738 2000 -2521.699
6349.748 2000 -2520.245
6249.76 2000 -2518.695
6149.774 2000 -2517.05
6049.789 2000 -2515.309
5949.806 2000 -2513.472
5849.824 2000 -2511.541
5749.845 2000 -2509.513
5649.868 2000 -2507.37
5549.893 2000 -2505.111
5449.922 2000 -2502.743
5349.952 2000 -2500.267
5249.986 2000 -2497.682
5150.022 2000 -2494.988
5050.061 2000 -2492.186
4950.104 2000 -2489.275
4850.149 2000 -2486.255
4750.198 2000 -2483.127
4650.251 2000 -2479.89
4550.307 2000 -2476.544
4450.366 2000 -2473.09
4350.43 2000 -2469.527
4250.497 2000 -2465.855
4150.569 2000 -2462.075
4050.644 2000 -2458.186
3950.724 2000 -2454.188
3850.809 2000 -2450.082
3750.897 2000 -2445.867
3650.991 2000 -2441.544
3551.089 2000 -2437.112
3451.192 2000 -2432.571
3351.3 2000 -2427.922
3251.414 2000 -2423.164
3151.532 2000 -2418.298
3051.656 2000 -2413.323
2951.785 2000 -2408.24
2851.92 2000 -2403.047
2752.061 2000 -2397.747
2652.207 2000 -2392.338
2552.36 2000 -2386.82
2452.518 2000 -2381.193
2352.683 2000 -2375.459
2252.853 2000 -2369.615
2153.031 2000 -2363.663
2053.215 2000 -2357.603
1953.405 2000 -2351.434
1853.604 2000 -2345.136
1753.811 2000 -2338.701
1654.025 2000 -2332.152
1554.248 2000 -2325.491
1454.477 2000 -2318.716
1354.715 2000 -2311.828
1254.96 2000 -2304.827
1155.214 2000 -2297.712
1055.475 2000 -2290.485
955.745 2000 -2283.144
856.023 2000 -2275.691
756.31 2000 -2268.124
656.605 2000 -2260.444
556.909 2000 -2252.651
457.222 2000 -2244.745
357.544 2000 -2236.726
257.876 2000 -2228.593
158.216 2000 -2220.348
58.566 2000 -2211.99
-41.074 2000 -2203.518
-140.705 2000 -2194.934
-240.326 2000 -2186.237
-339.937 2000 -2177.426
-439.542 2000 -2168.544
-536.12 2000 -2144.798
-624.309 2000 -2098.019
-699.828 2000 -2032.835
-756.66 2000 -1950.904
-792.579 2000 -1857.766
-999.412 1750 -115.136
-998.074 1750 -215.127
-995.966 1750 -315.105
-993.089 1750 -415.063
-989.443 1750 -514.996
-985.027 1750 -614.899
-979.844 1750 -714.764
-973.892 1750 -814.586
-967.128 1750 -914.357
-959.368 1750 -1014.055
-950.598 1750 -1113.669
-940.821 1750 -1213.19
-930.035 1750 -1312.606
-917.898 1750 -1411.865
-904.044 1750 -1510.9
-888.481 1750 -1609.68
-870.999 1750 -1708.138
-849.668 1750 -1805.784
-808.636 1750 -1896.692
-746.433 1750 -1974.668
-667.498 1750 -2035.683
-576.475 1750 -2076.529
-478.083 1750 -2092.977
-378.591 1750 -2103.042
-279.086 1750 -2112.981
-179.569 1750 -2122.795
-80.039 1750 -2132.484
19.502 1750 -2142.047
119.056 1750 -2151.485
218.621 1750 -2160.798
318.198 1750 -2169.986
417.787 1750 -2179.048
517.387 1750 -2187.985
616.998 1750 -2196.796
716.62 1750 -2205.482
816.253 1750 -2214.043
915.896 1750 -2222.479
1015.55 1750 -2230.788
1115.215 1750 -2238.973
1214.889 1750 -2247.032
1314.574 1750 -2254.966
1414.269 1750 -2262.774
1513.977 1750 -2270.411
1613.697 1750 -2277.892
1713.426 1750 -2285.248
1813.164 1750 -2292.477
1912.912 1750 -2299.579
2012.668 1750 -2306.556
2112.433 1750 -2313.406
2212.207 1750 -2320.13
2311.989 1750 -2326.727
2411.779 1750 -2333.199
2511.578 1750 -2339.543
2611.384 1750 -2345.762
2711.198 1750 -2351.854
2811.02 1750 -2357.82
2910.85 1750 -2363.659
3010.686 1750 -2369.372
3110.53 1750 -2374.958
3210.381 1750 -2380.418
3310.239 1750 -2385.752
3410.103 1750 -2390.959
3509.974 1750 -2396.04
3609.851 1750 -2400.994
3709.734 1750 -2405.822
3809.624 1750 -2410.524
3909.519 1750 -2415.098
4009.42 1750 -2419.547
4109.327 1750 -2423.869
4209.239 1750 -2428.064
4309.156 1750 -2432.134
4409.077 1750 -2436.088
4509.004 1750 -2439.929
4608.934 1750 -2443.655
4708.869 1750 -2447.268
4808.808 1750 -2450.766
4908.75 1750 -2454.15
5008.697 1750 -2457.42
5108.647 1750 -2460.576
5208.601 1750 -2463.618
5308.558 1750 -2466.545
5408.518 1750 -2469.359
5508.482 1750 -2472.058
5608.449 1750 -2474.644
5708.418 1750 -2477.115
5808.39 1750 -2479.472
5908.365 1750 -2481.715
6008.342 1750 -2483.844
6108.322 1750 -2485.858
6208.304 1750 -2487.759
6308.288 1750 -2489.545
6408.274 1750 -2491.218
6508.262 1750 -2492.776
6608.251 1750 -2494.22
6708.243 1750 -2495.544
6808.235 1750 -2496.779
6908.228 1750 -2497.928
7008.223 1750 -2498.991
7108.218 1750 -2499.97
7208.214 1750 -2500.863
7308.211 1750 -2501.67
7408.208 1750 -2502.392
7508.206 1750 -2503.029
7608.205 1750 -2503.581
7708.204 1750 -2504.047
7808.203 1750 -2504.427
7908.202 1750 -2504.723
8008.202 1750 -2504.933
8108.202 1750 -2505.057
8208.202 1750 -2505.097
8308.202 1750 -2505.051
8408.202 1750 -2504.919
8508.202 1750 -2504.766
8608.202 1750 -2504.57
8708.201 1750 -2504.288
8808.201 1750 -2503.918
8908.199 1750 -2503.462
9008.198 1750 -2502.919
9108.196 1750 -2502.289
9208.193 1750 -2501.572
9308.19 1750 -2500.768
9408.186 1750 -2499.877
9508.181 1750 -2498.899
9608.176 1750 -2497.835
9708.169 1750 -2496.683
9808.161 1750 -2495.445
9908.153 1750 -2494.119
10008.142 1750 -2492.688
10108.13 1750 -2491.116
10208.116 1750 -2489.409
10308.099 1750 -2487.566
10408.079 1750 -2485.589
10508.057 1750 -2483.476
10608.031 1750 -2481.229
10708.003 1750 -2478.846
10807.971 1750 -2476.329
10907.936 1750 -2473.676
11007.897 1750 -2470.888
11107.854 1750 -2467.964
11207.804 1750 -2464.798
11307.746 1750 -2461.384
11407.679 1750 -2457.72
11507.602 1750 -2453.807
11607.515 1750 -2449.644
11707.418 1750 -2445.233
11807.309 1750 -2440.573
11907.189 1750 -2435.663
12007.056 1750 -2430.505
12106.909 1750 -2425.098
12206.749 1750 -2419.441
12306.575 1750 -2413.536
12406.385 1750 -2407.382
12506.18 1750 -2400.979
12605.958 1750 -2394.327
12705.72 1750 -2387.427
12805.463 1750 -2380.269
12905.184 1750 -2372.798
13004.883 1750 -2365.047
13104.56 1750 -2357.016
13204.214 1750 -2348.705
13303.844 1750 -2340.115
13403.45 1750 -2331.244
13503.031 1750 -2322.094
13602.585 1750 -2312.664
13702.112 1750 -2302.955
13801.612 1750 -2292.966
13901.084 1750 -2282.697
14000.526 1750 -2272.15
14099.938 1750 -2261.323
14199.319 1750 -2250.217
14298.669 1750 -2238.831
14397.986 1750 -2227.167
14497.265 1750 -2215.18
14596.499 1750 -2202.828
14695.688 1750 -2190.114
14794.829 1750 -2177.036
14893.921 1750 -2163.596
14992.964 1750 -2149.793
15091.956 1750 -2135.627
15190.895 1750 -2121.098
15289.78 1750 -2106.208
15388.596 1750 -2090.869
15487.328 1750 -2074.994
15585.973 1750 -2058.586
15684.527 1750 -2041.645
15782.988 1750 -2024.17
15881.353 1750 -2006.163
15979.62 1750 -1987.624
16077.784 1750 -1968.553
16175.828 1750 -1948.87
16273.746 1750 -1928.572
16371.535 1750 -1907.66
16469.19 1750 -1886.134
16566.709 1750 -1863.996
16664.087 1750 -1841.246
16761.319 1750 -1817.885
16858.404 1750 -1793.915
16955.333 1750 -1769.323
17052.064 1750 -1743.964
17148.612 1750 -1717.919
17244.974 1750 -1691.191
17341.144 1750 -1663.781
17437.117 1750 -1635.69
17532.889 1750 -1606.92
17628.454 1750 -1577.472
17723.809 1750 -1547.347
17818.978 1750 -1516.643
17913.992 1750 -1485.459
18008.82 1750 -1453.717
18103.459 1750 -1421.416
18197.907 1750 -1388.559
18292.16 1750 -1355.146
18386.214 1750 -1321.178
18480.066 1750 -1286.657
18573.714 1750 -1251.584
18667.153 1750 -1215.96
18760.381 1750 -1179.787
18853.394 1750 -1143.065
18946.189 1750 -1105.796
19038.758 1750 -1067.967
19131.083 1750 -1029.547
19223.159 1750 -990.535
19314.983 1750 -950.933
19406.551 1750 -910.743
19497.86 1750 -869.966
19588.905 1750 -828.604
19679.682 1750 -786.66
19770.184 1750 -744.122
19860.324 1750 -700.825
19950.073 1750 -656.721
20039.422 1750 -611.815
20128.365 1750 -566.109
20216.895 1750 -519.607
20305.004 1750 -472.312
20392.629 1750 -424.128
20479.741 1750 -375.022
20566.332 1750 -325.003
20652.392 1750 -274.075
20737.911 1750 -222.245
20822.881 1750 -169.519
20907.149 1750 -115.68
20990.617 1750 -60.608
-999.44 1500 -112.18
-998.124 1500 -212.171
-996.039 1500 -312.149
-993.185 1500 -412.108
-989.561 1500 -512.042
-985.169 1500 -611.945
-980.008 1500 -711.812
-974.079 1500 -811.636
-967.342 1500 -911.408
-959.612 1500 -1011.108
-950.872 1500 -1110.725
-941.124 1500 -1210.249
-930.369 1500 -1309.668
-918.282 1500 -1408.934
-904.478 1500 -1507.975
-888.966 1500 -1606.763
-871.389 1500 -1705.202
-839.019 1500 -1799.575
-785.207 1500 -1883.54
-711.396 1500 -1950.612
-622.226 1500 -1995.108
-524.603 1500 -2015.59
-425.237 1500 -2026.829
-325.855 1500 -2037.93
-226.458 1500 -2048.892
-127.045 1500 -2059.716
-27.618 1500 -2070.401
71.824 1500 -2080.948
171.281 1500 -2091.356
270.753 1500 -2101.626
370.238 1500 -2111.757
469.738 1500 -2121.75
569.251 1500 -2131.604
668.778 1500 -2141.319
768.318 1500 -2150.896
867.872 1500 -2160.334
967.438 1500 -2169.633
1067.018 1500 -2178.794
1166.61 1500 -2187.816
1266.215 1500 -2196.699
1365.837 1500 -2205.388
1465.473 1500 -2213.902
1565.123 1500 -2222.272
1664.784 1500 -2230.499
1764.456 1500 -2238.581
1864.141 1500 -2246.52
1963.836 1500 -2254.315
2063.543 1500 -2261.966
2163.261 1500 -2269.474
2262.99 1500 -2276.837
2362.729 1500 -2284.057
2462.478 1500 -2291.132
2562.237 1500 -2298.064
2662.007 1500 -2304.852
2761.786 1500 -2311.496
2861.574 1500 -2317.995
2961.372 1500 -2324.351
3061.179 1500 -2330.563
3160.995 1500 -2336.631
3260.819 1500 -2342.554
3360.652 1500 -2348.334
3460.493 1500 -2353.97
3560.342 1500 -2359.461
3660.199 1500 -2364.809
3760.064 1500 -2370.01
3859.936 1500 -2375.069
3959.814 1500 -2380
4059.699 1500 -2384.804
4159.589 1500 -2389.479
4259.486 1500 -2394.027
4359.388 1500 -2398.446
4459.296 1500 -2402.737
4559.209 1500 -2406.901
4659.128 1500 -2410.936
4759.051 1500 -2414.844
4858.98 1500 -2418.623
4958.913 1500 -2422.275
5058.851 1500 -2425.798
5158.793 1500 -2429.193
5258.74 1500 -2432.461
5358.691 1500 -2435.6
5458.645 1500 -2438.611
5558.604 1500 -2441.495
5658.566 1500 -2444.25
5758.531 1500 -2446.877
5858.5 1500 -2449.376
5958.472 1500 -2451.753
6058.446 1500 -2454.021
6158.423 1500 -2456.183
6258.402 1500 -2458.237
6358.383 1500 -2460.184
6458.366 1500 -2462.024
6558.351 1500 -2463.756
6658.338 1500 -2465.381
6758.326 1500 -2466.899
6858.316 1500 -2468.309
6958.308 1500 -2469.612
7058.3 1500 -2470.807
7158.294 1500 -2471.896
7258.29 1500 -2472.877
7358.286 1500 -2473.75
7458.283 1500 -2474.516
7558.281 1500 -2475.175
7658.279 1500 -2475.727
7758.278 1500 -2476.171
7858.278 1500 -2476.515
7958.277 1500 -2476.803
8058.277 1500 -2476.999
8158.277 1500 -2477.101
8258.277 1500 -2477.111
8358.277 1500 -2477.028
8458.277 1500 -2476.852
8558.276 1500 -2476.583
8658.276 1500 -2476.221
8758.275 1500 -2475.766
8858.273 1500 -2475.218
8958.271 1500 -2474.578
9058.268 1500 -2473.844
9158.265 1500 -2473.017
9258.261 1500 -2472.098
9358.256 1500 -2471.086
9458.249 1500 -2469.951
9558.241 1500 -2468.67
9658.231 1500 -2467.242
9758.218 1500 -2465.667
9858.204 1500 -2463.945
9958.186 1500 -2462.076
10058.166 1500 -2460.061
10158.142 1500 -2457.898
10258.116 1500 -2455.588
10358.085 1500 -2453.132
10458.052 1500 -2450.529
10558.014 1500 -2447.778
10657.971 1500 -2444.848
10757.921 1500 -2441.71
10857.865 1500 -2438.362
10957.802 1500 -2434.807
11057.731 1500 -2431.042
11157.652 1500 -2427.07
11257.565 1500 -2422.888
11357.467 1500 -2418.462
11457.355 1500 -2413.746
11557.231 1500 -2408.753
11657.092 1500 -2403.482
11756.938 1500 -2397.933
11856.768 1500 -2392.108
11956.581 1500 -2386.005
12056.378 1500 -2379.624
12156.156 1500 -2372.967
12255.915 1500 -2366.033
12355.654 1500 -2358.821
12455.374 1500 -2351.333
12555.072 1500 -2343.568
12654.748 1500 -2335.525
12754.401 1500 -2327.206
12854.031 1500 -2318.61
12953.632 1500 -2309.691
13053.205 1500 -2300.457
13152.749 1500 -2290.919
13252.264 1500 -2281.077
13351.747 1500 -2270.931
13451.2 1500 -2260.482
13550.62 1500 -2249.728
13650.007 1500 -2238.672
13749.359 1500 -2227.311
13848.677 1500 -2215.648
13947.958 1500 -2203.681
14047.203 1500 -2191.411
14146.409 1500 -2178.838
14245.577 1500 -2165.962
14344.704 1500 -2152.783
14443.782 1500 -2139.237
14542.805 1500 -2125.291
14641.771 1500 -2110.946
14740.678 1500 -2096.203
14839.525 1500 -2081.062
14938.31 1500 -2065.523
15037.032 1500 -2049.587
15135.689 1500 -2033.253
15234.278 1500 -2016.514
15332.777 1500 -1999.254
15431.176 1500 -1981.43
15529.471 1500 -1963.043
15627.659 1500 -1944.094
15725.737 1500 -1924.583
15823.702 1500 -1904.51
15921.55 1500 -1883.878
16019.278 1500 -1862.685
16116.883 1500 -1840.93
16214.346 1500 -1818.549
16311.658 1500 -1795.521
16408.815 1500 -1771.847
16505.814 1500 -1747.53
16602.648 1500 -1722.57
16699.315 1500 -1696.968
16795.81 1500 -1670.725
16892.119 1500 -1643.809
16988.19 1500 -1616.053
17084.077 1500 -1587.67
17179.777 1500 -1558.66
17275.285 1500 -1529.025
17370.597 1500 -1498.767
17465.709 1500 -1467.886
17560.675 1500 -1436.558
17655.517 1500 -1404.857
17750.216 1500 -1372.732
17844.772 1500 -1340.185
17939.181 1500 -1307.217
18033.442 1500 -1273.828
18127.553 1500 -1240.018
18221.495 1500 -1205.744
18315.226 1500 -1170.894
18408.743 1500 -1135.473
18502.041 1500 -1099.481
18595.118 1500 -1062.92
18687.969 1500 -1025.791
18780.592 1500 -988.095
18872.983 1500 -949.835
18965.138 1500 -911.01
19057.055 1500 -871.623
19148.729 1500 -831.675
19240.157 1500 -791.168
19331.337 1500 -750.104
19422.263 1500 -708.482
19512.933 1500 -666.305
19603.302 1500 -623.487
19693.347 1500 -579.991
19783.062 1500 -535.82
19872.443 1500 -490.975
19961.484 1500 -445.46
20050.181 1500 -399.277
20138.528 1500 -352.429
20226.52 1500 -304.918
20314.153 1500 -256.746
20401.383 1500 -207.85
20488.181 1500 -158.191
20574.55 1500 -107.79
20660.485 1500 -56.652
20301.358 1250 -53.64
20213.46 1250 -101.325
20125.107 1250 -148.161
20036.355 1250 -194.238
19947.346 1250 -239.815
19858.084 1250 -284.897
19768.574 1250 -329.482
19678.817 1250 -373.57
19588.817 1250 -417.159
19498.577 1250 -460.247
19408.104 1250 -502.847
19317.449 1250 -545.056
19226.621 1250 -586.891
19135.62 1250 -628.351
19044.45 1250 -669.435
18953.111 1250 -710.143
18861.604 1250 -750.474
18769.932 1250 -790.426
18678.096 1250 -830.001
18586.11 1250 -869.225
18494.007 1250 -908.174
18401.785 1250 -946.841
18309.446 1250 -985.227
18216.99 1250 -1023.33
18124.417 1250 -1061.15
18031.651 1250 -1098.483
17937.892 1250 -1133.259
17843.963 1250 -1167.57
17749.865 1250 -1201.416
17655.601 1250 -1234.796
17561.172 1250 -1267.709
17466.582 1250 -1300.154
17371.833 1250 -1332.13
17277.011 1250 -1363.891
17182.045 1250 -1395.222
17086.935 1250 -1426.109
16991.682 1250 -1456.553
16896.288 1250 -1486.552
16800.755 1250 -1516.107
16705.07 1250 -1545.163
16609.181 1250 -1573.541
16513.115 1250 -1601.313
16416.876 1250 -1628.481
16320.468 1250 -1655.041
16223.895 1250 -1680.994
16127.16 1250 -1706.338
16030.267 1250 -1731.072
15933.221 1250 -1755.196
15836.024 1250 -1778.708
15738.682 1250 -1801.607
15641.197 1250 -1823.893
15543.573 1250 -1845.564
15445.821 1250 -1866.647
15347.958 1250 -1887.209
15249.987 1250 -1907.25
15151.911 1250 -1926.77
15053.732 1250 -1945.77
14955.455 1250 -1964.247
14857.08 1250 -1982.202
14758.611 1250 -1999.635
14660.064 1250 -2016.619
14561.449 1250 -2033.205
14462.768 1250 -2049.389
14364.021 1250 -2065.171
14265.211 1250 -2080.551
14166.339 1250 -2095.528
14067.406 1250 -2110.102
13968.416 1250 -2124.272
13869.368 1250 -2138.04
13770.266 1250 -2151.412
13671.123 1250 -2164.476
13571.938 1250 -2177.213
13472.711 1250 -2189.624
13373.444 1250 -2201.707
13274.137 1250 -2213.464
13174.792 1250 -2224.893
13075.411 1250 -2235.994
12975.993 1250 -2246.769
12876.54 1250 -2257.215
12777.053 1250 -2267.334
12677.534 1250 -2277.126
12577.983 1250 -2286.589
12478.401 1250 -2295.724
12378.79 1250 -2304.531
12279.15 1250 -2313.01
12179.482 1250 -2321.161
12079.795 1250 -2329.056
11980.084 1250 -2336.652
11880.35 1250 -2343.948
11780.595 1250 -2350.945
11680.82 1250 -2357.643
11581.025 1250 -2364.042
11481.211 1250 -2370.141
11381.379 1250 -2375.941
11281.531 1250 -2381.441
11181.666 1250 -2386.642
11081.786 1250 -2391.543
10981.893 1250 -2396.147
10881.988 1250 -2400.513
10782.074 1250 -2404.663
10682.151 1250 -2408.597
10582.221 1250 -2412.315
10482.282 1250 -2415.817
10382.336 1250 -2419.102
10282.383 1250 -2422.172
10182.424 1250 -2425.025
10082.459 1250 -2427.657
9982.488 1250 -2430.095
9882.514 1250 -2432.379
9782.537 1250 -2434.509
9682.557 1250 -2436.484
9582.573 1250 -2438.304
9482.587 1250 -2439.971
9382.599 1250 -2441.482
9282.608 1250 -2442.839
9182.615 1250 -2444.042
9082.62 1250 -2445.09
8982.624 1250 -2445.984
8882.627 1250 -2446.738
8782.63 1250 -2447.426
8682.631 1250 -2448.002
8582.632 1250 -2448.468
8482.633 1250 -2448.823
8382.633 1250 -2449.066
8282.633 1250 -2449.199
8182.633 1250 -2449.221
8082.634 1250 -2449.132
7982.634 1250 -2448.932
7882.634 1250 -2448.621
7782.635 1250 -2448.2
7682.637 1250 -2447.667
7582.639 1250 -2447.023
7482.641 1250 -2446.269
7382.645 1250 -2445.404
7282.65 1250 -2444.427
7182.656 1250 -2443.34
7082.663 1250 -2442.142
6982.672 1250 -2440.833
6882.682 1250 -2439.413
6782.693 1250 -2437.882
6682.707 1250 -2436.24
6582.722 1250 -2434.487
6482.74 1250 -2432.624
6382.759 1250 -2430.649
6282.781 1250 -2428.561
6182.806 1250 -2426.344
6082.833 1250 -2423.995
5982.864 1250 -2421.516
5882.898 1250 -2418.905
5782.936 1250 -2416.163
5682.977 1250 -2413.29
5583.022 1250 -2410.286
5483.071 1250 -2407.151
5383.125 1250 -2403.885
5283.182 1250 -2400.487
5183.245 1250 -2396.959
5083.312 1250 -2393.299
4983.383 1250 -2389.508
4883.46 1250 -2385.586
4783.543 1250 -2381.533
4683.63 1250 -2377.349
4583.723 1250 -2373.034
4483.822 1250 -2368.588
4383.927 1250 -2364.011
4284.038 1250 -2359.292
4184.157 1250 -2354.415
4084.284 1250 -2349.381
3984.419 1250 -2344.192
3884.562 1250 -2338.847
3784.713 1250 -2333.345
3684.874 1250 -2327.688
3585.043 1250 -2321.875
3485.221 1250 -2315.905
3385.409 1250 -2309.78
3285.606 1250 -2303.498
3185.814 1250 -2297.061
3086.031 1250 -2290.468
2986.259 1250 -2283.718
2886.498 1250 -2276.813
2786.748 1250 -2269.752
2687.008 1250 -2262.536
2587.281 1250 -2255.163
2487.564 1250 -2247.634
2387.86 1250 -2239.95
2288.168 1250 -2232.11
2188.488 1250 -2224.114
2088.821 1250 -2215.962
1989.167 1250 -2207.654
1889.526 1250 -2199.182
1789.903 1250 -2190.511
1690.294 1250 -2181.674
1590.7 1250 -2172.674
1491.121 1250 -2163.51
1391.557 1250 -2154.181
1292.008 1250 -2144.688
1192.476 1250 -2135.032
1092.959 1250 -2125.211
993.459 1250 -2115.226
893.975 1250 -2105.077
794.509 1250 -2094.764
695.059 1250 -2084.287
595.627 1250 -2073.646
496.212 1250 -2062.841
396.816 1250 -2051.873
297.437 1250 -2040.74
198.077 1250 -2029.444
98.736 1250 -2017.988
-0.594 1250 -2006.431
-99.907 1250 -1994.723
-199.201 1250 -1982.863
-298.477 1250 -1970.851
-397.734 1250 -1958.688
-496.973 1250 -1946.373
-596.047 1250 -1932.937
-690.316 1250 -1900.517
-771.206 1250 -1842.247
-833.562 1250 -1764.494
-873.756 1250 -1673.186
-894.117 1250 -1575.388
-909.076 1250 -1476.514
-922.284 1250 -1377.392
-933.911 1250 -1278.071
-944.419 1250 -1178.625
-953.828 1250 -1079.069
-962.138 1250 -979.415
-969.494 1250 -879.687
-976.045 1250 -779.902
-981.79 1250 -680.067
-986.727 1250 -580.189
-990.858 1250 -480.275
-994.181 1250 -380.33
-996.788 1250 -280.365
-998.629 1250 -180.382
-999.699 1250 -80.388
19889.464 1000 -49.71
19799.45 1000 -93.269
19709.15 1000 -136.233
19618.57 1000 -178.602
19527.712 1000 -220.373
19436.581 1000 -261.545
19345.2 1000 -302.159
19253.616 1000 -342.312
19161.826 1000 -381.995
19069.834 1000 -421.205
18977.642 1000 -459.942
18885.252 1000 -498.205
18792.666 1000 -535.992
18699.888 1000 -573.304
18606.921 1000 -610.143
18513.814 1000 -646.628
18420.59 1000 -682.812
18327.25 1000 -718.695
18233.795 1000 -754.277
18140.225 1000 -789.556
18046.6 1000 -824.69
17952.878 1000 -859.564
17859.038 1000 -894.119
17765.081 1000 -928.356
17671.009 1000 -962.274
17576.823 1000 -995.872
17482.471 1000 -1029.005
17387.988 1000 -1061.759
17293.376 1000 -1094.142
17198.639 1000 -1126.154
17103.776 1000 -1157.795
17008.791 1000 -1189.066
16913.735 1000 -1220.118
16818.632 1000 -1251.028
16723.483 1000 -1281.796
16628.288 1000 -1312.422
16533.047 1000 -1342.905
16437.762 1000 -1373.247
16342.43 1000 -1403.446
16247.054 1000 -1433.503
16151.648 1000 -1463.462
16056.18 1000 -1493.225
15960.644 1000 -1522.771
15865.043 1000 -1552.103
15769.375 1000 -1581.219
15673.643 1000 -1610.119
15577.845 1000 -1638.803
15481.95 1000 -1667.16
15385.985 1000 -1695.28
15289.962 1000 -1723.201
15193.88 1000 -1750.921
15097.742 1000 -1778.44
15001.546 1000 -1805.76
14905.293 1000 -1832.879
14808.984 1000 -1859.797
14712.619 1000 -1886.514
14616.22 1000 -1913.107
14519.788 1000 -1939.58
14422.584 1000 -1962.724
14324.252 1000 -1980.913
14225.836 1000 -1998.641
14127.338 1000 -2015.908
14028.76 1000 -2032.713
13930.105 1000 -2049.056
13831.374 1000 -2064.936
13732.569 1000 -2080.354
13633.694 1000 -2095.308
13534.75 1000 -2109.799
13435.744 1000 -2123.865
13336.687 1000 -2137.565
13237.58 1000 -2150.9
13138.425 1000 -2163.869
13039.222 1000 -2176.472
12939.974 1000 -2188.709
12840.681 1000 -2200.58
12741.345 1000 -2212.084
12641.967 1000 -2223.221
12542.549 1000 -2233.991
12443.091 1000 -2244.395
12343.596 1000 -2254.431
12244.073 1000 -2264.183
12144.517 1000 -2273.596
12044.93 1000 -2282.672
11945.312 1000 -2291.41
11845.666 1000 -2299.81
11745.991 1000 -2307.872
11646.29 1000 -2315.596
11546.563 1000 -2322.981
11446.812 1000 -2330.028
11347.037 1000 -2336.737
11247.24 1000 -2343.107
11147.423 1000 -2349.139
11047.585 1000 -2354.832
10947.728 1000 -2360.19
10847.858 1000 -2365.277
10747.975 1000 -2370.109
10648.08 1000 -2374.684
10548.173 1000 -2379.004
10448.256 1000 -2383.067
10348.328 1000 -2386.873
10248.391 1000 -2390.424
10148.445 1000 -2393.718
10048.492 1000 -2396.767
9948.533 1000 -2399.618
9848.568 1000 -2402.276
9748.598 1000 -2404.741
9648.624 1000 -2407.013
9548.646 1000 -2409.092
9448.664 1000 -2410.978
9348.678 1000 -2412.671
9248.689 1000 -2414.17
9148.698 1000 -2415.473
9048.704 1000 -2416.63
8948.71 1000 -2417.658
8848.714 1000 -2418.557
8748.717 1000 -2419.329
8648.719 1000 -2419.972
8548.72 1000 -2420.486
8448.721 1000 -2420.872
8348.721 1000 -2421.13
8248.721 1000 -2421.26
8148.721 1000 -2421.261
8048.721 1000 -2421.134
7948.722 1000 -2420.878
7848.722 1000 -2420.494
7748.724 1000 -2419.981
7648.726 1000 -2419.341
7548.729 1000 -2418.571
7448.733 1000 -2417.706
7348.737 1000 -2416.715
7248.744 1000 -2415.598
7148.751 1000 -2414.354
7048.761 1000 -2412.983
6948.772 1000 -2411.484
6848.785 1000 -2409.859
6748.801 1000 -2408.107
6648.818 1000 -2406.229
6548.838 1000 -2404.223
6448.861 1000 -2402.09
6348.887 1000 -2399.83
6248.915 1000 -2397.444
6148.947 1000 -2394.93
6048.982 1000 -2392.29
5949.02 1000 -2389.523
5849.062 1000 -2386.629
5749.108 1000 -2383.608
5649.157 1000 -2380.46
5549.211 1000 -2377.185
5449.269 1000 -2373.784
5349.331 1000 -2370.255
5249.398 1000 -2366.599
5149.47 1000 -2362.791
5049.549 1000 -2358.828
4949.634 1000 -2354.709
4849.725 1000 -2350.436
4749.823 1000 -2346.007
4649.928 1000 -2341.422
4550.041 1000 -2336.683
4450.161 1000 -2331.788
4350.288 1000 -2326.738
4250.424 1000 -2321.533
4150.568 1000 -2316.172
4050.72 1000 -2310.656
3950.881 1000 -2304.985
3851.051 1000 -2299.159
3751.23 1000 -2293.178
3651.418 1000 -2287.042
3551.617 1000 -2280.739
3451.828 1000 -2274.249
3352.05 1000 -2267.584
3252.284 1000 -2260.745
3152.531 1000 -2253.732
3052.789 1000 -2246.545
2953.061 1000 -2239.183
2853.345 1000 -2231.648
2753.643 1000 -2223.938
2653.954 1000 -2216.055
2554.279 1000 -2207.998
2454.618 1000 -2199.766
2354.972 1000 -2191.361
2255.341 1000 -2182.781
2155.725 1000 -2174.028
2056.124 1000 -2165.101
1956.539 1000 -2156
1858.32 1000 -2139.275
1761.882 1000 -2112.823
1665.54 1000 -2086.026
1569.293 1000 -2058.885
1473.144 1000 -2031.401
1377.094 1000 -2003.574
1281.144 1000 -1975.405
1185.295 1000 -1946.893
1089.548 1000 -1918.039
993.905 1000 -1888.843
898.366 1000 -1859.306
802.934 1000 -1829.429
707.604 1000 -1799.228
612.377 1000 -1768.7
517.258 1000 -1737.841
422.247 1000 -1706.65
327.345 1000 -1675.128
232.553 1000 -1643.276
137.874 1000 -1611.093
43.306 1000 -1578.581
-51.147 1000 -1545.74
-145.485 1000 -1512.569
-239.707 1000 -1479.07
-333.812 1000 -1445.243
-427.798 1000 -1411.088
-521.665 1000 -1376.606
-615.411 1000 -1341.796
-709.035 1000 -1306.661
-802.536 1000 -1271.199
-895.913 1000 -1235.411
-945.624 1000 -1166.181
-954.868 1000 -1066.61
-963.138 1000 -966.953
-970.432 1000 -867.219
-976.801 1000 -767.423
-982.392 1000 -667.579
-987.213 1000 -567.696
-991.266 1000 -467.778
-994.549 1000 -367.832
-997.062 1000 -267.864
-998.805 1000 -167.88
-999.778 1000 -67.885
19400.788 750 -45.71
19308.742 750 -84.793
19216.431 750 -123.247
19123.861 750 -161.071
19031.035 750 -198.264
18937.957 750 -234.822
18844.632 750 -270.745
18751.065 750 -306.032
18657.262 750 -340.686
18563.293 750 -374.888
18469.189 750 -408.717
18374.951 750 -442.172
18280.581 750 -475.253
18186.086 750 -507.972
18091.555 750 -540.591
17996.921 750 -572.909
17902.185 750 -604.926
17807.348 750 -636.641
17712.406 750 -668.043
17617.281 750 -698.885
17521.947 750 -729.074
17426.408 750 -758.607
17330.669 750 -787.485
17234.733 750 -815.704
17138.605 750 -843.262
17042.293 750 -870.167
16945.872 750 -896.681
16849.344 750 -922.804
16752.711 750 -948.534
16655.975 750 -973.873
16559.193 750 -999.038
16462.37 750 -1024.044
16365.498 750 -1048.857
16268.576 750 -1073.477
16171.605 750 -1097.903
16074.585 750 -1122.136
15977.517 750 -1146.174
15880.402 750 -1170.019
15783.234 750 -1193.65
15685.976 750 -1216.907
15588.652 750 -1239.884
15491.262 750 -1262.581
15393.806 750 -1284.997
15296.287 750 -1307.132
15198.704 750 -1328.985
15101.059 750 -1350.558
15003.352 750 -1371.849
14905.584 750 -1392.858
14807.755 750 -1413.586
14709.887 750 -1434.123
14611.98 750 -1454.475
14514.034 750 -1474.639
14416.049 750 -1494.615
14318.027 750 -1514.402
14219.966 750 -1534.001
14121.868 750 -1553.412
14023.733 750 -1572.634
13925.561 750 -1591.668
13827.353 750 -1610.512
13729.108 750 -1629.168
13630.828 750 -1647.636
13532.513 750 -1665.914
13434.163 750 -1684.003
13335.778 750 -1701.904
13237.359 750 -1719.615
13138.906 750 -1737.137
13040.42 750 -1754.47
12941.897 750 -1771.596
12843.331 750 -1788.469
12744.721 750 -1805.084
12646.068 750 -1821.443
12547.373 750 -1837.545
12448.636 750 -1853.389
12349.859 750 -1868.977
12251.041 750 -1884.307
12152.183 750 -1899.379
12053.287 750 -1914.194
11954.349 750 -1928.732
11855.359 750 -1942.911
11756.319 750 -1956.728
11657.228 750 -1970.182
11558.089 750 -1983.275
11458.902 750 -1996.005
11359.67 750 -2008.372
11260.393 750 -2020.377
11161.073 750 -2032.019
11061.712 750 -2043.298
10962.309 750 -2054.214
10862.868 750 -2064.766
10763.404 750 -2075.112
10663.91 750 -2085.155
10564.385 750 -2094.886
10464.829 750 -2104.306
10365.245 750 -2113.414
10265.633 750 -2122.21
10165.993 750 -2130.694
10066.327 750 -2138.857
9966.63 750 -2146.634
9866.903 750 -2154.018
9767.148 750 -2161.009
9667.366 750 -2167.606
9567.558 750 -2173.809
9467.727 750 -2179.619
9367.874 750 -2185.033
9267.997 750 -2189.986
9168.097 750 -2194.46
9068.177 750 -2198.454
8968.239 750 -2201.968
8868.285 750 -2205.003
8768.318 750 -2207.557
8668.339 750 -2209.622
8568.351 750 -2211.136
8468.355 750 -2212.105
8368.356 750 -2212.531
8268.357 750 -2212.413
8168.359 750 -2211.751
8068.366 750 -2210.544
7968.382 750 -2208.795
7868.408 750 -2206.501
7768.449 750 -2203.664
7668.506 750 -2200.283
7568.583 750 -2196.358
7468.683 750 -2191.89
7368.809 750 -2186.878
7268.964 750 -2181.307
7169.153 750 -2175.169
7069.378 750 -2168.465
6969.643 750 -2161.195
6869.95 750 -2153.359
6770.304 750 -2144.958
6670.707 750 -2135.992
6571.162 750 -2126.461
6471.674 750 -2116.365
6372.243 750 -2105.705
6272.876 750 -2094.477
6173.579 750 -2082.639
6074.352 750 -2070.229
5975.199 750 -2057.247
5876.122 750 -2043.694
5777.124 750 -2029.571
5678.21 750 -2014.877
5579.381 750 -1999.614
5480.643 750 -1983.781
5381.995 750 -1967.392
5283.436 750 -1950.478
5184.968 750 -1933.039
5086.595 750 -1915.078
4988.318 750 -1896.593
4890.141 750 -1877.586
4792.067 750 -1858.057
4694.097 750 -1838.011
4596.225 750 -1817.491
4498.451 750 -1796.508
4400.778 750 -1775.061
4303.208 750 -1753.152
4205.743 750 -1730.78
4108.385 750 -1707.947
4011.135 750 -1684.656
3913.981 750 -1660.966
3816.921 750 -1636.898
3719.955 750 -1612.451
3623.086 750 -1587.625
3526.314 750 -1562.422
3429.642 750 -1536.84
3333.07 750 -1510.882
3236.6 750 -1484.547
3140.234 750 -1457.835
3043.97 750 -1430.754
2947.808 750 -1403.317
2851.748 750 -1375.523
2755.792 750 -1347.374
2659.941 750 -1318.869
2564.196 750 -1290.009
2468.558 750 -1260.794
2373.03 750 -1231.225
2277.612 750 -1201.302
2182.306 750 -1171.025
2087.112 750 -1140.396
1992.033 750 -1109.414
1897.068 750 -1078.083
1802.209 750 -1046.431
1707.467 750 -1014.433
1612.842 750 -982.089
1518.336 750 -949.398
1423.951 750 -916.363
1329.686 750 -882.983
1235.545 750 -849.258
1141.527 750 -815.189
1047.635 750 -780.777
953.869 750 -746.021
860.231 750 -710.923
766.721 750 -675.483
673.342 750 -639.701
580.095 750 -603.578
486.98 750 -567.114
393.999 750 -530.31
301.153 750 -493.167
208.444 750 -455.684
115.872 750 -417.862
23.439 750 -379.703
-68.853 750 -341.205
-161.005 750 -302.37
-253 750 -263.168
-344.835 750 -223.59
-436.511 750 -183.648
-528.029 750 -143.343
-619.385 750 -102.674
-710.58 750 -61.642
18792.207 500 -40.779
18697.976 500 -74.254
18603.478 500 -106.965
18508.718 500 -138.91
18413.705 500 -170.095
18318.539 500 -200.811
18223.272 500 -231.209
18127.903 500 -261.29
18032.435 500 -291.051
17936.867 500 -320.494
17841.202 500 -349.618
17745.401 500 -378.29
17649.376 500 -406.202
17553.129 500 -433.34
17456.667 500 -459.703
17359.971 500 -485.193
17262.985 500 -509.559
17165.784 500 -533.053
17068.377 500 -555.673
16970.77 500 -577.417
16872.979 500 -598.322
16775.089 500 -618.753
16677.119 500 -638.801
16579.071 500 -658.464
16480.947 500 -677.742
16382.768 500 -696.737
16284.548 500 -715.522
16186.276 500 -734.029
16087.951 500 -752.258
15989.576 500 -770.209
15891.15 500 -787.881
15792.674 500 -805.275
15694.15 500 -822.39
15595.551 500 -839.071
15496.899 500 -855.439
15398.199 500 -871.506
15299.45 500 -887.274
15200.653 500 -902.741
15101.81 500 -917.907
15002.921 500 -932.773
14903.987 500 -947.338
14805.02 500 -961.671
14706.03 500 -975.847
14607.017 500 -989.863
14507.982 500 -1003.719
14408.924 500 -1017.415
14309.844 500 -1030.951
14210.743 500 -1044.327
14111.62 500 -1057.543
14012.476 500 -1070.599
13913.311 500 -1083.494
13814.125 500 -1096.23
13714.919 500 -1108.805
13615.693 500 -1121.22
13516.447 500 -1133.475
13417.181 500 -1145.57
13317.895 500 -1157.504
13218.591 500 -1169.278
13119.268 500 -1180.891
13019.928 500 -1192.368
12920.577 500 -1203.735
12821.206 500 -1214.938
12721.817 500 -1225.976
12622.41 500 -1236.85
12522.985 500 -1247.559
12423.543 500 -1258.103
12324.083 500 -1268.483
12224.606 500 -1278.698
12125.112 500 -1288.749
12025.602 500 -1298.635
11926.075 500 -1308.348
11826.525 500 -1317.819
11726.951 500 -1327.042
11627.355 500 -1336.018
11527.736 500 -1344.746
11428.097 500 -1353.227
11328.436 500 -1361.461
11228.756 500 -1369.447
11129.055 500 -1377.186
11029.336 500 -1384.676
10929.599 500 -1391.92
10829.846 500 -1398.949
10730.082 500 -1405.815
10630.301 500 -1412.426
10530.503 500 -1418.781
10430.69 500 -1424.88
10330.861 500 -1430.724
10231.017 500 -1436.312
10131.159 500 -1441.645
10031.286 500 -1446.675
9931.395 500 -1451.339
9831.487 500 -1455.637
9731.565 500 -1459.571
9631.628 500 -1463.141
9531.68 500 -1466.345
9431.719 500 -1469.157
9331.747 500 -1471.502
9231.765 500 -1473.377
9131.775 500 -1474.78
9031.779 500 -1475.712
8931.78 500 -1476.174
8831.78 500 -1476.123
8731.782 500 -1475.498
8631.79 500 -1474.302
8531.806 500 -1472.534
8431.833 500 -1470.195
8331.876 500 -1467.274
8231.938 500 -1463.752
8132.023 500 -1459.628
8032.135 500 -1454.903
7932.277 500 -1449.577
7832.453 500 -1443.649
7732.667 500 -1437.12
7632.921 500 -1429.991
7533.221 500 -1422.262
7433.568 500 -1413.932
7333.968 500 -1405.002
7234.423 500 -1395.474
7134.94 500 -1385.323
7035.523 500 -1374.539
6936.177 500 -1363.124
6836.906 500 -1351.076
6737.713 500 -1338.397
6638.603 500 -1325.088
6539.579 500 -1311.148
6440.646 500 -1296.579
6341.808 500 -1281.381
6243.069 500 -1265.554
6144.432 500 -1249.1
6045.904 500 -1232.003
5947.496 500 -1214.231
5849.203 500 -1195.837
5751.028 500 -1176.821
5652.975 500 -1157.185
5555.048 500 -1136.929
5457.251 500 -1116.054
5359.582 500 -1094.591
5262.038 500 -1072.562
5164.625 500 -1049.968
5067.343 500 -1026.809
4970.198 500 -1003.087
4873.191 500 -978.803
4776.322 500 -953.979
4679.58 500 -928.659
4582.97 500 -902.843
4486.494 500 -876.532
4390.154 500 -849.726
4293.954 500 -822.419
4197.879 500 -794.68
4101.922 500 -766.531
4006.087 500 -737.974
3910.373 500 -709.009
3814.785 500 -679.636
3719.322 500 -649.856
3623.979 500 -619.695
3528.74 500 -589.207
3433.612 500 -558.372
3338.598 500 -527.192
3243.697 500 -495.667
3148.912 500 -463.797
3054.243 500 -431.582
2959.691 500 -399.024
2865.259 500 -366.121
2770.947 500 -332.876
2676.757 500 -299.288
2582.689 500 -265.357
2488.746 500 -231.085
2394.927 500 -196.472
2301.236 500 -161.517
2207.671 500 -126.222
2114.236 500 -90.587
2034.84 500 -45.084
17981.349 250 -34.57
17884.964 250 -61.213
17788.39 250 -87.163
17691.631 250 -112.418
17594.687 250 -136.947
17497.458 250 -160.321
17399.927 250 -182.403
17302.112 250 -203.19
17204.03 250 -222.677
17105.682 250 -240.777
17007.148 250 -257.836
16908.44 250 -273.854
16809.569 250 -288.836
16710.602 250 -303.172
16611.578 250 -317.105
16512.497 250 -330.635
16413.363 250 -343.763
16314.176 250 -356.488
16214.954 250 -368.937
16115.694 250 -381.081
16016.389 250 -392.847
15917.039 250 -404.232
15817.646 250 -415.238
15718.213 250 -425.865
15618.739 250 -436.112
15519.227 250 -445.979
15419.666 250 -455.34
15320.076 250 -464.378
15220.458 250 -473.108
15120.813 250 -481.528
15021.142 250 -489.639
14921.447 250 -497.441
14821.746 250 -505.167
14722.036 250 -512.782
14622.318 250 -520.284
14522.592 250 -527.674
14422.857 250 -534.952
14323.114 250 -542.117
14223.363 250 -549.17
14123.604 250 -556.111
14023.837 250 -562.939
13924.063 250 -569.655
13824.281 250 -576.258
13724.492 250 -582.749
13624.696 250 -589.128
13524.893 250 -595.394
13425.078 250 -601.489
13325.257 250 -607.459
13225.431 250 -613.355
13125.601 250 -619.179
13025.766 250 -624.929
12925.927 250 -630.606
12826.084 250 -636.21
12726.237 250 -641.74
12626.387 250 -647.198
12526.532 250 -652.582
12426.673 250 -657.893
12326.81 250 -663.131
12226.943 250 -668.296
12127.073 250 -673.387
12027.199 250 -678.406
11927.323 250 -683.381
11827.442 250 -688.251
11727.554 250 -692.988
11627.66 250 -697.592
11527.76 250 -702.062
11427.854 250 -706.399
11327.942 250 -710.602
11228.025 250 -714.672
11128.103 250 -718.609
11028.175 250 -722.412
10928.243 250 -726.082
10828.305 250 -729.618
10728.363 250 -733.021
10628.416 250 -736.291
10528.466 250 -739.431
10428.509 250 -742.371
10328.545 250 -745.059
10228.575 250 -747.494
10128.599 250 -749.677
10028.617 250 -751.608
9928.632 250 -753.287
9828.641 250 -754.681
9728.647 250 -755.698
9628.649 250 -756.337
9528.649 250 -756.6
9428.649 250 -756.486
9328.65 250 -755.992
9228.655 250 -755.014
9128.667 250 -753.518
9028.687 250 -751.504
8928.719 250 -748.971
8828.766 250 -745.921
8728.83 250 -742.352
8628.917 250 -738.184
8529.034 250 -733.35
8429.184 250 -727.872
8329.372 250 -721.75
8229.601 250 -714.985
8129.876 250 -707.577
8030.201 250 -699.525
7930.58 250 -690.831
7831.017 250 -681.494
7731.516 250 -671.516
7632.082 250 -660.894
7532.721 250 -649.606
7433.439 250 -637.647
7334.24 250 -625.019
7235.128 250 -611.723
7136.108 250 -597.758
7037.185 250 -583.125
6938.362 250 -567.825
6839.645 250 -551.859
6741.039 250 -535.221
6642.554 250 -517.886
6544.193 250 -499.854
6445.963 250 -481.125
6347.867 250 -461.701
6249.912 250 -441.583
6152.102 250 -420.772
6054.442 250 -399.268
5956.936 250 -377.073
5859.592 250 -354.181
5762.416 250 -330.585
5665.396 250 -306.354
5568.537 250 -281.49
5471.842 250 -255.993
5375.316 250 -229.864
5278.963 250 -203.105
5182.787 250 -175.716
5086.781 250 -147.736
4990.941 250 -119.196
4895.27 250 -90.091
4799.773 250 -60.422
11099.41 0 -60.032
10999.41 0 -60.234
10899.41 0 -60.279
10799.41 0 -60.234
10699.41 0 -60.152
23000 3223.259 -25.768
23000 3254.74 -120.471
23000 3300.187 -209.496
23000 3352.451 -294.728
23000 3409.142 -377.097
23000 3469.209 -457.038
23000 3532.124 -534.762
23000 3597.271 -610.625
23000 3664.592 -684.565
23000 3733.832 -756.714
23000 3804.684 -827.279
23000 3877.181 -896.154
23000 3951.281 -963.301
22000 2547.237 -82.459
22000 2608.785 -161.271
22000 2671.808 -238.911
22000 2735.955 -315.624
22000 2801.212 -391.395
22000 2867.407 -466.35
22000 2934.252 -540.726
22000 3001.84 -614.426
22000 3070.802 -686.841
22000 3141.242 -757.818
22000 3213.132 -827.327
22000 3286.44 -895.338
22000 3361.165 -961.79
22000 3437.394 -1026.51
22000 3515.077 -1089.477
22000 3594.175 -1150.658
22000 3674.646 -1210.022
22000 3756.448 -1267.537
22000 3839.442 -1323.319
22000 3923.418 -1377.612
21000 1767.184 -69.411
21000 1841.876 -135.903
21000 1916.118 -202.896
21000 1990.043 -270.239
21000 2063.859 -337.7
21000 2137.568 -405.28
21000 2211.28 -472.857
21000 2285.242 -540.159
21000 2359.361 -607.289
21000 2433.635 -674.246
21000 2508.065 -741.031
21000 2582.649 -807.643
21000 2657.381 -874.09
21000 2732.174 -940.468
21000 2807.068 -1006.731
21000 2882.063 -1072.88
21000 2959.876 -1135.631
21000 3039.854 -1195.658
21000 3121.06 -1254.012
21000 3203.459 -1310.67
21000 3287.015 -1365.606
21000 3371.694 -1418.796
21000 3457.43 -1470.264
21000 3544.044 -1520.242
21000 3631.486 -1568.756
21000 3719.706 -1615.842
21000 3808.49 -1661.857
21000 3897.787 -1706.866
21000 3987.588 -1750.864
20000 1084.781 -69.277
20000 1160.169 -134.979
20000 1235.706 -200.509
20000 1311.392 -265.867
20000 1387.226 -331.053
20000 1463.725 -395.452
20000 1540.743 -459.235
20000 1617.858 -522.9
20000 1695.07 -586.448
20000 1772.378 -649.878
20000 1849.927 -713.014
20000 1927.706 -775.866
20000 2005.685 -838.471
20000 2083.863 -900.826
20000 2162.238 -962.933
20000 2240.738 -1024.883
20000 2319.255 -1086.811
20000 2397.845 -1148.647
20000 2476.508 -1210.389
20000 2555.244 -1272.038
20000 2634.053 -1333.594
20000 2712.974 -1395.006
20000 2792.139 -1456.104
20000 2873.77 -1513.519
20000 2961.348 -1561.786
20000 3049.839 -1608.359
20000 3139.203 -1653.234
20000 3229.205 -1696.817
20000 3319.744 -1739.275
20000 3410.804 -1780.602
20000 3502.359 -1820.821
20000 3594.286 -1860.183
20000 3686.554 -1898.739
20000 3779.156 -1936.486
20000 3872.085 -1973.421
20000 3965.306 -2009.611
19000 609.922 -73.416
19000 681.228 -143.527
19000 752.897 -213.266
19000 824.928 -282.631
19000 897.078 -351.872
19000 969.271 -421.069
19000 1041.521 -490.206
19000 1113.828 -559.283
19000 1186.192 -628.301
19000 1258.612 -697.259
19000 1331.094 -766.154
19000 1410.245 -827.268
19000 1489.645 -888.06
19000 1569.291 -948.53
19000 1649.181 -1008.675
19000 1729.316 -1068.495
19000 1809.692 -1127.99
19000 1890.31 -1187.157
19000 1971.012 -1246.209
19000 2051.923 -1304.975
19000 2133.051 -1363.44
19000 2214.397 -1421.604
19000 2295.993 -1479.413
19000 2377.984 -1536.662
19000 2460.347 -1593.375
19000 2543.078 -1649.55
19000 2626.173 -1705.183
19000 2709.63 -1760.273
19000 2793.445 -1814.818
19000 2886.495 -1851.255
19000 2980.032 -1886.623
19000 3073.742 -1921.529
19000 3167.623 -1955.971
19000 3261.674 -1989.949
19000 3355.892 -2023.459
19000 3450.362 -2056.252
19000 3545.084 -2088.311
19000 3640.051 -2119.633
19000 3735.26 -2150.216
19000 3830.702 -2180.06
19000 3926.337 -2209.283
19000 4022.115 -2238.031
18000 293.33 -76.321
18000 360.974 -149.971
18000 428.663 -223.579
18000 496.397 -297.146
18000 564.176 -370.672
18000 632.001 -444.155
18000 699.871 -517.597
18000 767.786 -590.997
18000 835.699 -664.399
18000 903.615 -737.797
18000 971.557 -811.172
18000 1039.525 -884.523
18000 1107.519 -957.85
18000 1175.539 -1031.153
18000 1243.584 -1104.432
18000 1324.511 -1163.01
18000 1406.329 -1220.507
18000 1488.387 -1277.66
18000 1570.683 -1334.469
18000 1653.217 -1390.933
18000 1735.987 -1447.05
18000 1819.118 -1502.63
18000 1902.764 -1557.432
18000 1986.916 -1611.454
18000 2071.566 -1664.693
18000 2156.706 -1717.142
18000 2242.331 -1768.799
18000 2328.409 -1819.696
18000 2414.883 -1869.917
18000 2501.813 -1919.345
18000 2589.192 -1967.975
18000 2677.012 -2015.803
18000 2766.51 -2059.783
18000 2862.399 -2088.16
18000 2958.406 -2116.135
18000 3054.53 -2143.706
18000 3150.769 -2170.874
18000 3247.128 -2197.613
18000 3343.67 -2223.681
18000 3440.391 -2249.077
18000 3537.287 -2273.799
18000 3634.352 -2297.846
18000 3731.583 -2321.217
18000 3828.956 -2343.986
18000 3926.433 -2366.308
18000 4024.01 -2388.186
17000 115.429 -90.651
17000 177.874 -168.759
17000 240.346 -246.843
17000 302.847 -324.905
17000 365.376 -402.944
17000 427.934 -480.96
17000 490.52 -558.954
17000 553.134 -636.924
17000 615.777 -714.872
17000 678.448 -792.798
17000 741.147 -870.7
17000 803.875 -948.58
17000 866.631 -1026.437
17000 929.415 -1104.271
17000 992.228 -1182.082
17000 1055.068 -1259.87
17000 1118.048 -1337.547
17000 1185.084 -1410.804
17000 1268.459 -1466.018
17000 1352.391 -1520.381
17000 1436.927 -1573.799
17000 1522.228 -1625.986
17000 1608.231 -1677.009
17000 1694.92 -1726.858
17000 1782.278 -1775.525
17000 1870.203 -1823.159
17000 1958.542 -1870.023
17000 2047.284 -1916.118
17000 2136.423 -1961.44
17000 2225.954 -2005.986
17000 2315.867 -2049.751
17000 2406.154 -2092.743
17000 2496.736 -2135.108
17000 2587.609 -2176.847
17000 2678.768 -2217.956
17000 2774.069 -2246.857
17000 2871.596 -2268.96
17000 2969.261 -2290.441
17000 3067.062 -2311.299
